ply
format ascii 1.0
comment Java E3D tool
element vertex 722
property double x
property double y
property double z
property uint8 red
property uint8 green
property uint8 blue
end_header
-40.81454305937796 55.6439393939394 -3.663201765580611 215 70 53
-33.31344373298414 -64.50757575757576 60.65512772762414 23 24 19
-40.81454305937796 55.39772727272727 -3.663201765580611 209 64 45
-28.52398381088719 48.996212121212125 -13.625317775841916 196 59 41
-33.40356422193123 -65.24621212121212 60.31879511746493 26 27 21
-40.724422570430875 55.151515151515156 -3.3268691554214014 208 63 46
-28.52398381088719 48.75 -13.625317775841916 201 64 46
-40.724422570430875 54.90530303030303 -3.3268691554214014 204 61 45
-33.97727272727273 -59.82954545454545 58.85036237312086 34 31 24
-40.63430208148378 54.65909090909091 -2.9905365452621924 201 61 44
-28.220636772386957 48.50378787878788 -13.165879105076646 202 62 49
-33.67392568877249 -60.07575757575758 59.309801043886125 29 28 23
-40.63430208148378 54.41287878787879 -2.9905365452621924 194 64 42
-28.220636772386957 48.25757575757576 -13.165879105076646 197 56 46
-40.63430208148378 54.166666666666664 -2.9905365452621924 193 65 40
-33.67392568877249 -60.321969696969695 59.309801043886125 35 34 29
-40.33095504298355 53.92045454545455 -2.5310978744969224 194 62 39
-28.220636772386957 48.01136363636364 -13.165879105076646 179 38 28
-33.583805199825406 -60.321969696969695 59.646129897146515 42 41 36
-40.33095504298355 53.67424242424242 -2.5310978744969224 195 60 38
-40.33095504298355 53.428030303030305 -2.5310978744969224 196 61 41
-33.67392568877249 -60.56818181818182 59.309801043886125 45 44 39
-40.33095504298355 53.18181818181818 -2.5310978744969224 197 62 43
-40.24083455403646 52.93560606060606 -2.194765264337713 198 63 43
-33.67392568877249 -60.81439393939394 59.309801043886125 36 35 30
-28.220636772386957 47.765151515151516 -13.165879105076646 161 23 12
-40.24083455403646 52.68939393939394 -2.194765264337713 198 63 43
-33.583805199825406 -61.06060606060606 59.646129897146515 32 33 27
-39.93748751553622 52.44318181818182 -1.7353265935724431 198 63 43
-28.220636772386957 47.5189393939394 -13.165879105076646 170 32 21
-39.93748751553622 52.196969696969695 -1.7353265935724431 198 63 43
-33.583805199825406 -61.06060606060606 59.646129897146515 31 32 26
-28.220636772386957 47.27272727272727 -13.165879105076646 179 43 31
-39.93748751553622 51.95075757575758 -1.7353265935724431 198 63 43
-28.220636772386957 47.02651515151515 -13.165879105076646 191 55 41
-33.583805199825406 -61.30681818181818 59.646129897146515 28 29 23
-39.72426096598307 51.70454545454545 -1.6122205329663826 198 63 43
-28.130516283439867 46.78030303030303 -12.829546494917436 193 62 44
-39.72426096598307 51.458333333333336 -1.6122205329663826 198 63 43
-28.130516283439867 46.53409090909091 -12.829546494917436 193 62 44
-33.37057865027226 -61.553030303030305 59.76923595775258 30 31 25
-39.420928955078125 51.21212121212121 -1.1527818622011128 198 63 43
-28.130516283439867 46.28787878787879 -12.829546494917436 192 61 41
-39.420928955078125 50.96590909090909 -1.1527818622011128 196 60 44
-28.04039579449278 46.041666666666664 -12.493213884758227 194 63 43
-33.37057865027226 -61.553030303030305 59.76923595775258 28 29 23
-28.04039579449278 45.79545454545455 -12.493213884758227 197 67 45
-39.420928955078125 50.71969696969697 -1.1527818622011128 196 60 44
-28.04039579449278 45.54924242424242 -12.493213884758227 196 68 43
-39.33080846613104 50.47348484848485 -0.8164492520419034 178 42 28
-33.583805199825406 -62.04545454545455 59.646129897146515 26 27 21
-27.737048755992543 45.303030303030305 -12.033775213992957 197 65 40
-39.420928955078125 50.22727272727273 -1.1527818622011128 167 31 17
-27.737048755992543 45.05681818181818 -12.033775213992957 201 65 43
-39.420928955078125 49.98106060606061 -1.1527818622011128 158 22 10
-33.583805199825406 -62.291666666666664 59.646129897146515 23 24 18
-27.737048755992543 44.81060606060606 -12.033775213992957 202 65 46
-39.420928955078125 49.734848484848484 -1.1527818622011128 164 30 18
-27.646928267045453 44.56439393939394 -11.697442603833748 204 64 47
-39.420928955078125 49.24242424242424 -1.1527818622011128 166 32 20
-33.280458161325164 -62.04545454545455 60.10556856791178 27 28 22
-27.646928267045453 44.31818181818182 -11.697442603833748 202 65 49
-39.420928955078125 48.996212121212125 -1.1527818622011128 172 40 27
-27.646928267045453 44.071969696969695 -11.697442603833748 200 64 48
-39.33080846613104 48.996212121212125 -0.8164492520419034 180 48 33
-33.280458161325164 -62.291666666666664 60.10556856791178 26 25 21
-27.646928267045453 43.82575757575758 -11.697442603833748 197 65 50
-39.420928955078125 48.50378787878788 -1.1527818622011128 183 51 36
-27.34358122854522 43.82575757575758 -11.238003933068478 198 67 49
-33.280458161325164 -62.53787878787879 60.10556856791178 26 25 23
-39.0274614276308 48.50378787878788 -0.35701058127663354 186 53 38
-27.34358122854522 43.57954545454545 -11.238003933068478 189 63 41
-39.0274614276308 48.25757575757576 -0.35701058127663354 190 57 42
-33.280458161325164 -62.78409090909091 60.10556856791178 26 25 23
-27.34358122854522 43.333333333333336 -11.238003933068478 190 65 43
-39.0274614276308 48.01136363636364 -0.35701058127663354 193 60 43
-33.280458161325164 -63.03030303030303 60.10556856791178 26 25 23
-39.0274614276308 47.5189393939394 -0.35701058127663354 171 38 21
-27.13035467899207 43.08712121212121 -11.114897872462418 177 56 29
-39.0274614276308 47.27272727272727 -0.35701058127663354 152 19 0
-33.280458161325164 -63.276515151515156 60.10556856791178 26 25 23
-39.0274614276308 47.02651515151515 -0.35701058127663354 188 55 36
-26.646781690192945 42.34848484848485 -9.982801495176373 197 71 49
-33.280458161325164 -63.52272727272727 60.10556856791178 26 25 23
-38.93734093868371 47.02651515151515 -0.020677971117424244 210 75 55
-38.63399390018348 46.78030303030303 0.43876069964784564 199 64 44
-26.646781690192945 42.10227272727273 -9.982801495176373 198 69 48
-33.280458161325164 -63.52272727272727 60.10556856791178 26 25 21
-38.63399390018348 46.53409090909091 0.43876069964784564 198 63 43
-26.556661201245856 41.85606060606061 -9.646468885017164 200 63 45
-38.54387341123639 46.28787878787879 0.7750933098070549 190 55 35
-33.280458161325164 -63.7689393939394 60.10556856791178 26 25 21
-38.54387341123639 46.041666666666664 0.7750933098070549 200 65 43
-33.067231611772016 -64.01515151515152 60.228674628517844 23 24 19
-38.54387341123639 45.79545454545455 0.7750933098070549 194 59 37
-26.556661201245856 41.609848484848484 -9.646468885017164 200 60 43
-38.54387341123639 45.54924242424242 0.7750933098070549 197 60 41
-33.067231611772016 -64.01515151515152 60.228674628517844 24 25 20
-26.556661201245856 41.36363636363637 -9.646468885017164 199 59 42
-38.11742031213009 45.303030303030305 1.0213054310191763 198 61 42
-33.280458161325164 -65.0 60.10556856791178 22 23 17
-38.11742031213009 45.05681818181818 1.0213054310191763 196 61 41
-26.556661201245856 41.11742424242424 -9.646468885017164 196 59 41
-38.027299823183 44.81060606060606 1.3576380411783855 196 61 41
-33.42771356756037 -60.07575757575758 58.88334794477983 38 35 28
-26.25331416274562 40.871212121212125 -9.187030214251894 197 60 42
-38.027299823183 44.56439393939394 1.3576380411783855 196 61 41
-38.027299823183 44.31818181818182 1.3576380411783855 196 61 41
-33.33759307861328 -60.321969696969695 59.21968055493904 42 41 36
-26.25331416274562 40.625 -9.187030214251894 196 61 42
-37.937179334235914 44.071969696969695 1.6939631375399502 196 61 41
-37.937179334235914 43.82575757575758 1.6939631375399502 194 62 41
-33.33759307861328 -60.56818181818182 59.21968055493904 43 42 37
-26.16319367379853 40.37878787878788 -8.850697604092685 193 60 41
-37.937179334235914 43.57954545454545 1.6939631375399502 196 61 41
-37.63383229573568 43.333333333333336 2.15340180830522 190 60 34
-33.33759307861328 -60.56818181818182 59.21968055493904 37 36 31
-26.16319367379853 40.13257575757576 -8.850697604092685 191 60 40
-37.63383229573568 43.08712121212121 2.15340180830522 193 63 37
-33.33759307861328 -60.81439393939394 59.21968055493904 31 30 25
-37.543711806788586 42.84090909090909 2.4897344184644297 193 63 37
-26.16319367379853 39.88636363636364 -8.850697604092685 192 61 41
-37.543711806788586 42.59469696969697 2.4897344184644297 189 59 35
-33.42771356756037 -61.30681818181818 58.88334794477983 39 36 29
-37.543711806788586 42.34848484848485 2.4897344184644297 191 61 39
-25.859846635298297 39.88636363636364 -8.391258933327414 193 60 41
-37.543711806788586 42.10227272727273 2.4897344184644297 193 62 44
-33.42771356756037 -61.553030303030305 58.88334794477983 39 34 28
-37.24036476828835 41.85606060606061 2.9491730892296992 190 49 39
-25.859846635298297 39.640151515151516 -8.391258933327414 194 61 42
-37.24036476828835 41.609848484848484 2.9491730892296992 187 33 33
-33.33759307861328 -61.553030303030305 59.21968055493904 33 32 27
-25.859846635298297 39.39393939393939 -8.391258933327414 194 61 42
-37.543711806788586 41.36363636363637 2.4897344184644297 172 26 27
-37.24036476828835 41.11742424242424 2.9491730892296992 123 18 15
-33.33759307861328 -61.79924242424242 59.21968055493904 28 25 20
-25.859846635298297 39.14772727272727 -8.391258933327414 194 61 42
-37.543711806788586 40.871212121212125 2.4897344184644297 99 24 18
-32.911139979506984 -61.79924242424242 59.465892676151164 22 21 16
-37.63383229573568 40.625 2.15340180830522 106 48 44
-25.769726146351207 38.90151515151515 -8.054926323168205 194 61 42
-41.117890097878195 36.68560606060606 -4.122640436345881 142 34 32
-32.911139979506984 -62.04545454545455 59.465892676151164 24 23 18
-25.769726146351207 38.65530303030303 -8.054926323168205 194 61 42
-41.117890097878195 36.43939393939394 -4.122640436345881 136 28 25
-32.911139979506984 -62.291666666666664 59.465892676151164 23 22 17
-40.81454305937796 36.19318181818182 -3.663201765580611 142 30 28
-25.67960565740412 38.40909090909091 -7.718593713008996 194 62 41
-40.81454305937796 35.946969696969695 -3.663201765580611 144 32 28
-32.911139979506984 -62.53787878787879 59.465892676151164 33 30 25
-40.724422570430875 35.70075757575758 -3.3268691554214014 145 32 26
-25.67960565740412 38.16287878787879 -7.718593713008996 194 62 41
-40.63430208148378 35.70075757575758 -2.9905365452621924 145 32 26
-32.911139979506984 -62.78409090909091 59.465892676151164 31 28 23
-25.67960565740412 37.916666666666664 -7.718593713008996 193 61 38
-40.63430208148378 35.45454545454545 -2.9905365452621924 146 31 28
-25.376258618903883 37.67045454545455 -7.2591550422437265 192 60 39
-40.33095504298355 35.208333333333336 -2.5310978744969224 144 31 27
-32.911139979506984 -62.78409090909091 59.465892676151164 30 27 22
-25.376258618903883 37.42424242424242 -7.2591550422437265 191 58 39
-40.33095504298355 34.96212121212121 -2.5310978744969224 144 30 29
-25.163032069350734 37.178030303030305 -7.136048981637666 191 58 41
-40.33095504298355 34.71590909090909 -2.5310978744969224 143 29 29
-32.911139979506984 -63.03030303030303 59.465892676151164 29 26 21
-25.163032069350734 36.93181818181818 -7.136048981637666 189 56 39
-40.33095504298355 34.46969696969697 -2.5310978744969224 143 29 29
-25.072911580403645 36.68560606060606 -6.799716371478456 188 55 40
-40.33095504298355 34.22348484848485 -2.5310978744969224 141 29 28
-32.8210194905599 -63.276515151515156 59.80222528631037 26 25 21
-25.072911580403645 36.43939393939394 -6.799716371478456 187 54 39
-40.33095504298355 33.97727272727273 -2.5310978744969224 138 29 26
-25.072911580403645 36.19318181818182 -6.799716371478456 185 53 38
-40.24083455403646 33.73106060606061 -2.194765264337713 136 29 23
-32.60779294100675 -63.276515151515156 59.92533134691643 26 25 21
-25.072911580403645 36.19318181818182 -6.799716371478456 185 53 38
-40.24083455403646 33.484848484848484 -2.194765264337713 134 29 23
-32.8210194905599 -63.52272727272727 59.80222528631037 24 23 19
-24.76956454190341 35.946969696969695 -6.3402777007131865 183 51 38
-39.93748751553622 33.23863636363637 -1.7353265935724431 133 29 26
-24.76956454190341 35.70075757575758 -6.3402777007131865 183 51 38
-40.24083455403646 32.99242424242424 -2.194765264337713 131 29 25
-32.8210194905599 -63.7689393939394 59.80222528631037 23 22 17
-24.76956454190341 35.45454545454545 -6.3402777007131865 182 52 38
-40.24083455403646 32.746212121212125 -2.194765264337713 131 29 24
-24.67944405295632 35.208333333333336 -6.0039450905539775 181 51 38
-32.60779294100675 -63.7689393939394 59.92533134691643 24 25 19
-40.24083455403646 32.5 -2.194765264337713 131 28 23
-24.67944405295632 34.96212121212121 -6.0039450905539775 182 52 39
-32.60779294100675 -64.01515151515152 59.92533134691643 26 27 21
-39.93748751553622 32.25378787878788 -1.7353265935724431 132 27 21
-24.67944405295632 34.71590909090909 -6.0039450905539775 182 52 39
-32.60779294100675 -64.26136363636364 59.92533134691643 24 25 19
-39.93748751553622 32.00757575757576 -1.7353265935724431 133 26 20
-24.67944405295632 34.46969696969697 -6.0039450905539775 181 51 38
-32.8210194905599 -64.75378787878788 59.80222528631037 22 23 17
-39.93748751553622 31.761363636363637 -1.7353265935724431 136 24 22
-24.67944405295632 34.22348484848485 -6.0039450905539775 181 51 38
-40.24083455403646 31.268939393939394 -2.194765264337713 133 23 22
-33.42771356756037 -65.73863636363636 58.88334794477983 16 14 2
-24.589323564009234 33.97727272727273 -5.6676124803947685 169 44 38
-40.24083455403646 31.022727272727273 -2.194765264337713 135 25 24
-33.42771356756037 -65.98484848484848 58.88334794477983 5 3 0
-24.589323564009234 33.73106060606061 -5.6676124803947685 167 44 37
-40.24083455403646 30.776515151515152 -2.194765264337713 131 23 23
-32.78803391890092 -60.56818181818182 59.252666126598015 41 38 31
-24.589323564009234 33.484848484848484 -5.6676124803947685 165 44 36
-40.24083455403646 30.53030303030303 -2.194765264337713 124 20 21
-32.878154407848015 -60.81439393939394 58.916333516438804 27 22 16
-24.499203075062145 33.23863636363637 -5.331279870235559 136 23 19
-40.24083455403646 30.28409090909091 -2.194765264337713 118 19 22
-32.878154407848015 -61.06060606060606 58.916333516438804 33 28 22
-24.499203075062145 32.99242424242424 -5.331279870235559 132 18 17
-40.24083455403646 30.03787878787879 -2.194765264337713 115 26 28
-32.78803391890092 -61.06060606060606 59.252666126598015 39 34 28
-24.499203075062145 32.746212121212125 -5.331279870235559 129 17 15
-40.24083455403646 29.791666666666668 -2.194765264337713 113 33 34
-32.78803391890092 -61.30681818181818 59.252666126598015 33 30 23
-24.499203075062145 32.5 -5.331279870235559 128 16 15
-40.24083455403646 29.545454545454547 -2.194765264337713 104 30 31
-32.78803391890092 -61.553030303030305 59.252666126598015 28 23 17
-24.499203075062145 32.25378787878788 -5.331279870235559 128 16 15
-40.24083455403646 29.299242424242426 -2.194765264337713 87 26 25
-32.57480736934777 -61.553030303030305 59.37577218720407 24 23 18
-24.499203075062145 32.00757575757576 -5.331279870235559 128 15 17
-40.33095504298355 29.053030303030305 -2.5310978744969224 91 31 30
-32.57480736934777 -61.79924242424242 59.37577218720407 27 24 19
-23.015468481815223 -13.787878787878789 -2.4845348704944956 48 13 9
-40.24083455403646 28.806818181818183 -2.194765264337713 30 3 0
-32.57480736934777 -62.04545454545455 59.37577218720407 28 25 20
-22.925347992868137 -14.03409090909091 -2.1482022603352866 35 1 0
-40.33095504298355 28.560606060606062 -2.5310978744969224 31 0 0
-32.78803391890092 -62.291666666666664 59.252666126598015 28 23 17
-22.925347992868137 -14.280303030303031 -2.1482022603352866 36 8 5
-40.24083455403646 27.8219696969697 -2.194765264337713 5 10 3
-32.78803391890092 -62.53787878787879 59.252666126598015 34 30 21
-39.93748751553622 27.575757575757578 -1.7353265935724431 5 10 4
-9.94097969748757 -40.625 24.112212441184305 48 37 31
-32.78803391890092 -62.78409090909091 59.252666126598015 36 31 25
-40.24083455403646 27.329545454545453 -2.194765264337713 11 13 8
-9.850859208540482 -40.871212121212125 24.448545051343512 46 32 21
-32.78803391890092 -63.03030303030303 59.252666126598015 29 25 16
-40.24083455403646 27.083333333333332 -2.194765264337713 17 13 12
-9.850859208540482 -41.11742424242424 24.448545051343512 48 31 21
-32.78803391890092 -63.276515151515156 59.252666126598015 22 17 11
-40.33095504298355 26.83712121212121 -2.5310978744969224 21 13 11
-9.850859208540482 -41.11742424242424 24.448545051343512 48 30 20
-32.78803391890092 -63.52272727272727 59.252666126598015 21 17 8
-40.63430208148378 26.59090909090909 -2.9905365452621924 26 12 12
-9.850859208540482 -41.36363636363637 24.448545051343512 51 28 20
-32.57480736934777 -63.52272727272727 59.37577218720407 23 20 13
-40.63430208148378 26.34469696969697 -2.9905365452621924 26 12 11
-9.850859208540482 -41.609848484848484 24.448545051343512 53 28 21
-32.57480736934777 -63.7689393939394 59.37577218720407 18 18 8
-40.724422570430875 25.852272727272727 -3.3268691554214014 27 13 12
-9.637632658987334 -41.609848484848484 24.571651111949574 59 31 19
-32.57480736934777 -64.01515151515152 59.37577218720407 25 25 17
-40.724422570430875 25.606060606060606 -3.3268691554214014 25 16 11
-9.637632658987334 -41.85606060606061 24.571651111949574 61 31 20
-40.81454305937796 25.359848484848484 -3.663201765580611 24 19 13
-9.637632658987334 -42.10227272727273 24.571651111949574 72 40 27
-32.57480736934777 -64.26136363636364 59.37577218720407 22 22 12
-41.117890097878195 25.113636363636363 -4.122640436345881 27 20 14
-9.637632658987334 -42.34848484848485 24.571651111949574 75 43 28
-41.117890097878195 24.867424242424242 -4.122640436345881 31 12 6
-32.57480736934777 -64.50757575757576 59.37577218720407 15 15 5
-9.637632658987334 -42.59469696969697 24.571651111949574 79 46 29
-11.294500177556818 17.727272727272727 -1.1191651315400095 131 23 23
-41.72458417487867 24.375 -5.041510264078776 73 19 19
-32.78803391890092 -65.0 59.252666126598015 17 15 3
-9.547512170040246 -42.59469696969697 24.907983722108785 78 43 23
-3.61317490086411 -52.93560606060606 63.871833338881984 62 60 48
-11.20439471620502 17.481060606060606 -0.7828325213808002 130 24 26
-32.23847475918856 -61.79924242424242 59.285651698256984 29 24 18
-9.457391681093158 -42.84090909090909 25.244308818470348 87 49 26
-3.3999483513109614 -52.93560606060606 63.99493939948805 74 72 59
-11.20439471620502 17.234848484848484 -0.7828325213808002 130 24 28
-32.23847475918856 -62.53787878787879 59.285651698256984 36 31 25
-9.547512170040246 -45.303030303030305 24.907983722108785 137 72 30
-28.54230244954427 -45.79545454545455 17.921549479166668 148 79 22
-11.294500177556818 16.988636363636363 -1.1191651315400095 127 22 26
-9.547512170040246 -45.303030303030305 24.907983722108785 141 77 31
-28.148834922096945 -45.79545454545455 18.717320760091145 151 81 21
-32.23847475918856 -62.78409090909091 59.285651698256984 29 25 16
-11.20439471620502 16.742424242424242 -0.7828325213808002 128 22 26
-9.547512170040246 -45.54924242424242 24.907983722108785 142 79 28
-27.452020356149387 -45.79545454545455 19.972530711780895 156 86 24
-11.20439471620502 16.742424242424242 -0.7828325213808002 130 21 24
-9.36727119214607 -45.54924242424242 25.58064142862956 143 78 22
-40.35510438861269 55.39772727272727 -3.9665488040808476 212 64 38
-32.23847475918856 -62.78409090909091 59.285651698256984 22 17 11
-11.20439471620502 16.49621212121212 -0.7828325213808002 129 20 23
-9.063924153645834 -45.54924242424242 26.040080099394828 121 55 0
-40.35510438861269 55.151515151515156 -3.9665488040808476 207 63 36
-32.23847475918856 -63.03030303030303 59.285651698256984 21 17 8
-11.20439471620502 16.25 -0.7828325213808002 126 20 20
-40.2649838996656 54.90530303030303 -3.630216193921638 203 61 41
8.329856178977273 -45.303030303030305 63.37530656294389 22 19 10
-11.20439471620502 16.00378787878788 -0.7828325213808002 120 20 20
-40.2649838996656 54.65909090909091 -3.630216193921638 201 61 44
-57.08631804495147 56.13636363636364 15.65671053799716 178 71 61
8.419961640329072 -45.303030303030305 63.7116391731031 40 34 22
-11.20439471620502 15.757575757575758 -0.7828325213808002 112 24 23
-40.2649838996656 54.41287878787879 -3.630216193921638 195 64 46
8.419961640329072 -45.54924242424242 63.7116391731031 53 45 32
-11.20439471620502 15.511363636363637 -0.7828325213808002 101 27 26
-39.96163686116537 54.166666666666664 -3.1707775231563686 192 63 41
-57.176438533898555 55.890151515151516 15.32037792783795 177 52 34
8.419961640329072 -45.54924242424242 63.7116391731031 63 55 42
-39.96163686116537 53.92045454545455 -3.1707775231563686 197 63 38
-11.20439471620502 15.265151515151516 -0.7828325213808002 80 24 23
8.329856178977273 -46.041666666666664 63.37530656294389 62 54 41
-39.96163686116537 53.67424242424242 -3.1707775231563686 198 62 38
-11.20439471620502 15.018939393939394 -0.7828325213808002 59 19 19
-57.176438533898555 55.6439393939394 15.32037792783795 179 50 31
-28.638253645463422 51.70454545454545 -15.397093801787406 220 74 51
-39.871516372218274 53.428030303030305 -2.834444912997159 196 61 41
-11.20439471620502 14.772727272727273 -0.7828325213808002 44 18 19
-28.638253645463422 51.458333333333336 -15.397093801787406 214 66 40
-39.871516372218274 53.18181818181818 -2.834444912997159 196 61 42
-56.782971006451234 54.90530303030303 16.11614920876243 176 65 56
-10.991168166651871 14.772727272727273 -0.6597264607747396 43 23 25
-28.548133156516336 51.21212121212121 -15.060761191628195 206 60 37
-39.78139588327119 52.93560606060606 -2.4981123028379497 197 62 42
-10.687821128151633 14.526515151515152 -0.2002877900094697 41 21 30
-28.548133156516336 50.96590909090909 -15.060761191628195 200 61 38
-56.71699986313329 56.62878787878788 15.017030889337713 188 61 42
-39.78139588327119 52.68939393939394 -2.4981123028379497 197 62 42
-28.548133156516336 50.71969696969697 -15.060761191628195 196 61 41
-10.507580150257457 14.03409090909091 0.47237743030894885 31 19 29
-39.78139588327119 52.44318181818182 -2.4981123028379497 198 63 43
-56.626879374186196 56.13636363636364 15.353363499496922 185 58 39
-28.244786118016098 50.47348484848485 -14.601322520862926 196 63 46
-10.41745966131037 13.295454545454545 0.8087100404681582 26 20 30
-39.47804884477095 52.196969696969695 -2.03867363207268 198 63 43
-28.244786118016098 50.22727272727273 -14.601322520862926 200 63 47
-10.327339172363281 13.049242424242424 1.1450426506273674 26 20 30
-56.626879374186196 55.890151515151516 15.353363499496922 177 51 29
-39.47804884477095 51.95075757575758 -2.03867363207268 198 63 43
-28.244786118016098 49.98106060606061 -14.601322520862926 204 57 47
-10.327339172363281 12.803030303030303 1.1450426506273674 23 17 27
-39.264822295217805 51.70454545454545 -1.9155675714666194 198 63 43
-56.626879374186196 55.6439393939394 15.353363499496922 178 49 27
-28.15466562906901 49.734848484848484 -14.264997424501361 202 55 45
-10.114112622810133 12.556818181818182 1.268148711233428 26 20 32
-39.264822295217805 51.458333333333336 -1.9155675714666194 199 64 44
-28.15466562906901 49.48863636363637 -14.264997424501361 200 58 48
-10.023992133863045 12.06439393939394 1.6044813213926374 37 26 40
-56.626879374186196 55.39772727272727 15.353363499496922 198 70 45
-39.264822295217805 51.21212121212121 -1.9155675714666194 199 64 44
-28.15466562906901 49.24242424242424 -14.264997424501361 198 57 47
-9.540404117468631 11.325757575757576 2.7365852124763257 35 22 40
-39.264822295217805 50.96590909090909 -1.9155675714666194 197 61 45
-56.32354736328125 55.151515151515156 15.812802170262193 197 64 45
-27.851318590568773 48.996212121212125 -13.805558753736092 197 62 42
-9.540404117468631 11.325757575757576 2.7365852124763257 32 19 36
-39.264822295217805 50.71969696969697 -1.9155675714666194 199 63 47
-27.851318590568773 48.75 -13.805558753736092 198 61 42
-56.32354736328125 54.90530303030303 15.812802170262193 194 61 42
-9.540404117468631 11.079545454545455 2.7365852124763257 29 19 30
-39.264822295217805 50.47348484848485 -1.9155675714666194 199 63 49
-27.851318590568773 48.50378787878788 -13.805558753736092 190 50 33
-9.540404117468631 10.833333333333334 2.7365852124763257 26 9 17
-39.264822295217805 50.22727272727273 -1.9155675714666194 184 48 34
-28.15466562906901 48.25757575757576 -14.264997424501361 166 25 15
-56.1103208137281 54.65909090909091 15.935908230868254 186 62 50
-9.056816101074219 9.848484848484848 3.8686815897623696 141 31 34
-38.96149028431286 49.98106060606061 -1.4561289007013494 161 25 13
-28.15466562906901 48.01136363636364 -14.264997424501361 179 38 28
-8.96669561212713 9.602272727272727 4.205014199921579 139 25 24
-38.96149028431286 49.734848484848484 -1.4561289007013494 158 24 12
-56.1103208137281 54.41287878787879 15.935908230868254 175 58 48
-28.15466562906901 47.765151515151516 -14.264997424501361 191 50 40
-8.876575123180043 9.356060606060606 4.541346810080788 138 26 25
-39.264822295217805 49.24242424242424 -1.9155675714666194 165 31 19
-27.851318590568773 47.5189393939394 -13.805558753736092 196 54 42
-55.80697377522787 54.166666666666664 16.395346901633523 131 53 43
-8.876575123180043 9.109848484848484 4.541346810080788 134 26 23
-38.96149028431286 49.24242424242424 -1.4561289007013494 170 38 25
-27.851318590568773 47.27272727272727 -13.805558753736092 198 56 42
-8.876575123180043 8.863636363636363 4.541346810080788 130 25 22
-38.871369795365766 48.996212121212125 -1.1197962905421401 177 45 30
-27.761198101621687 47.02651515151515 -13.469226143576883 200 60 45
-56.1103208137281 53.92045454545455 15.935908230868254 147 51 39
-8.876575123180043 8.617424242424242 4.541346810080788 129 25 22
-38.871369795365766 48.75 -1.1197962905421401 182 50 35
-27.761198101621687 46.78030303030303 -13.469226143576883 200 63 47
-8.876575123180043 8.371212121212121 4.541346810080788 130 26 25
-38.871369795365766 48.50378787878788 -1.1197962905421401 187 54 39
-27.761198101621687 46.53409090909091 -13.469226143576883 200 65 46
-56.56090823086825 57.121212121212125 14.254252693869851 200 63 44
-8.876575123180043 8.371212121212121 4.541346810080788 134 24 23
-38.56802275686553 48.25757575757576 -0.6603576197768702 193 60 45
-27.671077612674598 46.28787878787879 -13.132893533417674 194 63 43
-38.56802275686553 48.01136363636364 -0.6603576197768702 191 58 41
-8.876575123180043 8.125 4.541346810080788 136 24 23
-27.671077612674598 46.041666666666664 -13.132893533417674 196 66 44
-56.470787741921164 56.875 14.590577790231416 203 66 48
-38.56802275686553 47.765151515151516 -0.6603576197768702 187 54 37
-8.450122024073746 7.632575757575758 4.787558931292909 138 23 26
-27.671077612674598 45.79545454545455 -13.132893533417674 197 68 47
-38.56802275686553 47.5189393939394 -0.6603576197768702 159 26 9
-56.470787741921164 56.62878787878788 14.590577790231416 205 68 50
-27.36773057417436 45.54924242424242 -12.673454862652402 193 66 47
-8.450122024073746 7.386363636363637 4.787558931292909 138 23 26
-38.56802275686553 47.27272727272727 -0.6603576197768702 164 31 14
-27.36773057417436 45.303030303030305 -12.673454862652402 193 66 47
-8.360001535126658 7.386363636363637 5.123891541452119 134 24 25
-56.16744070342093 56.38257575757576 15.050016460996686 191 62 41
-38.56802275686553 47.02651515151515 -0.6603576197768702 207 72 53
-27.36773057417436 45.05681818181818 -12.673454862652402 196 67 48
-8.360001535126658 7.140151515151516 5.123891541452119 134 26 26
-38.477902267918445 46.78030303030303 -0.324025009617661 208 73 54
-56.16744070342093 55.890151515151516 15.050016460996686 170 44 22
-27.277610085227273 44.81060606060606 -12.337122252493193 197 66 46
-8.360001535126658 6.8939393939393945 5.123891541452119 134 26 26
-38.1745552294182 46.53409090909091 0.13541366114760892 195 60 40
-27.277610085227273 44.56439393939394 -12.337122252493193 198 65 48
-8.360001535126658 6.401515151515151 5.123891541452119 131 25 27
-56.470787741921164 55.6439393939394 14.590577790231416 179 43 27
-38.1745552294182 46.28787878787879 0.13541366114760892 196 61 41
-27.277610085227273 44.31818181818182 -12.337122252493193 197 64 47
-8.360001535126658 6.15530303030303 5.123891541452119 131 25 27
-38.08443474047112 46.041666666666664 0.4717462713068182 200 65 45
-56.16744070342093 55.39772727272727 15.050016460996686 196 71 49
-8.360001535126658 5.909090909090909 5.123891541452119 131 25 25
-27.187489596280184 44.31818181818182 -12.000789642333984 196 63 48
-38.08443474047112 45.79545454545455 0.4717462713068182 194 59 39
-8.269881046179568 5.909090909090909 5.460224151611328 136 23 25
-27.187489596280184 44.071969696969695 -12.000789642333984 193 63 47
-56.07733524206913 55.151515151515156 15.386349071155895 198 76 52
-38.08443474047112 45.54924242424242 0.4717462713068182 197 60 41
-8.269881046179568 5.662878787878788 5.460224151611328 136 24 23
-27.187489596280184 43.82575757575758 -12.000789642333984 193 66 51
-37.65798164136482 45.303030303030305 0.7179583925189394 197 60 41
-56.07733524206913 54.90530303030303 15.386349071155895 193 71 47
-8.269881046179568 5.416666666666667 5.460224151611328 138 23 26
-26.88414255777995 43.57954545454545 -11.541350971568715 192 66 51
-37.65798164136482 45.05681818181818 0.7179583925189394 197 62 42
-8.269881046179568 5.170454545454546 5.460224151611328 137 24 26
-26.88414255777995 43.333333333333336 -11.541350971568715 189 66 48
-55.650882142962836 54.65909090909091 15.632561192368016 190 60 38
-37.65798164136482 44.81060606060606 0.7179583925189394 197 62 42
-8.269881046179568 4.924242424242424 5.460224151611328 137 24 26
-26.79402206883286 43.08712121212121 -11.205018361409506 188 66 45
-37.567861152417734 44.56439393939394 1.0542910026781487 197 62 42
-55.650882142962836 54.41287878787879 15.632561192368016 192 63 42
-26.79402206883286 42.84090909090909 -11.205018361409506 191 66 46
-8.269881046179568 4.678030303030303 5.460224151611328 137 24 26
-37.567861152417734 44.31818181818182 1.0542910026781487 197 62 42
-26.79402206883286 42.59469696969697 -11.205018361409506 191 65 43
-8.17976055723248 4.678030303030303 5.796556761770537 134 24 25
-55.650882142962836 54.166666666666664 15.632561192368016 195 64 46
-37.567861152417734 44.071969696969695 1.0542910026781487 197 62 42
-26.79402206883286 42.34848484848485 -11.205018361409506 192 63 42
-8.17976055723248 4.431818181818182 5.796556761770537 136 23 25
-37.47774066347064 43.82575757575758 1.390623612837358 196 61 41
-55.347535104462594 53.92045454545455 16.091999863133285 174 54 40
-26.187343019427676 41.609848484848484 -10.286141019878965 201 75 53
-8.17976055723248 4.1856060606060606 5.796556761770537 136 23 25
-37.47774066347064 43.57954545454545 1.390623612837358 197 62 42
-25.883995980927438 41.36363636363637 -9.826702349113695 194 63 43
-8.17976055723248 3.9393939393939394 5.796556761770537 137 22 25
-37.47774066347064 43.333333333333336 1.390623612837358 197 62 42
-55.347535104462594 53.67424242424242 16.091999863133285 164 46 34
-25.883995980927438 41.11742424242424 -9.826702349113695 193 60 41
-8.17976055723248 3.6931818181818183 5.796556761770537 138 23 26
-37.174393624970406 43.08712121212121 1.850062283602628 194 62 41
-25.883995980927438 40.871212121212125 -9.826702349113695 196 61 42
-8.089655095880682 3.4469696969696972 6.132889371929747 137 24 28
-37.174393624970406 42.84090909090909 1.850062283602628 194 62 41
-55.347535104462594 53.428030303030305 16.091999863133285 150 45 39
-25.883995980927438 40.625 -9.826702349113695 197 62 43
-8.089655095880682 3.2007575757575757 6.132889371929747 138 23 28
-37.08427313602332 42.59469696969697 2.186387379964193 193 61 40
-25.79387549198035 40.37878787878788 -9.49037725275213 196 61 42
-8.089655095880682 3.2007575757575757 6.132889371929747 138 23 28
-37.08427313602332 42.34848484848485 2.186387379964193 192 60 39
-55.347535104462594 53.18181818181818 16.091999863133285 133 48 51
-25.79387549198035 40.13257575757576 -9.49037725275213 194 59 40
-8.089655095880682 2.9545454545454546 6.132889371929747 139 22 28
-37.08427313602332 42.10227272727273 2.186387379964193 191 59 38
-25.70375500303326 40.13257575757576 -9.154044642592922 193 60 41
-66.4812099572384 13.049242424242424 -0.5708758036295573 105 31 32
-37.08427313602332 41.85606060606061 2.186387379964193 191 58 39
-25.70375500303326 39.88636363636364 -9.154044642592922 193 60 41
-8.089655095880682 2.7083333333333335 6.132889371929747 139 23 26
-36.780926097523086 41.609848484848484 2.6458260507294624 193 42 35
-25.70375500303326 39.640151515151516 -9.154044642592922 193 60 41
-66.4812099572384 12.803030303030303 -0.5708758036295573 102 32 34
-8.089655095880682 2.462121212121212 6.132889371929747 139 22 28
-37.08427313602332 41.36363636363637 2.186387379964193 171 39 24
-25.70375500303326 39.39393939393939 -9.154044642592922 193 60 41
-7.876428546327533 2.215909090909091 6.255995432535808 137 24 28
-37.08427313602332 41.11742424242424 2.186387379964193 152 28 20
-25.400407964533027 39.14772727272727 -8.694605971827652 194 61 42
-66.17786291873816 12.556818181818182 -0.11143713286428741 80 32 30
-7.876428546327533 1.9696969696969697 6.255995432535808 138 23 28
-37.08427313602332 40.871212121212125 2.186387379964193 124 15 12
-25.310287475585938 38.90151515151515 -8.358273361668441 195 62 43
-7.876428546327533 1.7234848484848486 6.255995432535808 138 23 26
-37.08427313602332 40.625 2.186387379964193 103 17 16
-25.310287475585938 38.65530303030303 -8.358273361668441 197 62 43
-66.17786291873816 12.31060606060606 -0.11143713286428741 75 34 30
-8.089655095880682 1.4772727272727273 6.132889371929747 137 23 22
-37.47774066347064 40.37878787878788 1.390623612837358 124 44 47
-25.310287475585938 38.40909090909091 -8.358273361668441 197 62 43
-7.876428546327533 1.4772727272727273 6.255995432535808 140 22 20
-40.87167797666608 36.68560606060606 -4.549086021654533 135 30 27
-25.310287475585938 38.16287878787879 -8.358273361668441 194 61 42
-7.876428546327533 1.231060606060606 6.255995432535808 138 23 20
-65.75140981963186 12.06439393939394 0.1347749883478338 53 34 27
-25.310287475585938 37.916666666666664 -8.358273361668441 194 61 42
-40.65845142711293 36.43939393939394 -4.425979961048473 134 26 24
-7.876428546327533 0.9848484848484849 6.255995432535808 138 23 20
-25.22016698663885 37.67045454545455 -8.021940751509232 192 60 39
-40.35510438861269 36.19318181818182 -3.9665488040808476 133 25 22
-7.786308057380445 0.7386363636363636 6.592328042695017 137 25 21
-66.17786291873816 11.818181818181818 -0.11143713286428741 67 40 31
-24.916819948138613 37.42424242424242 -7.562502080743963 192 60 39
-40.2649838996656 36.19318181818182 -3.630216193921638 140 28 26
-7.786308057380445 0.49242424242424243 6.592328042695017 134 27 21
-24.916819948138613 37.178030303030305 -7.562502080743963 191 58 41
-65.75140981963186 11.571969696969697 0.1347749883478338 43 33 24
-40.2649838996656 35.946969696969695 -3.630216193921638 142 30 26
-7.786308057380445 0.49242424242424243 6.592328042695017 132 27 23
-24.916819948138613 36.93181818181818 -7.562502080743963 191 58 41
-39.96163686116537 35.70075757575758 -3.1707775231563686 144 29 26
-7.786308057380445 0.24621212121212122 6.592328042695017 131 28 23
-24.826699459191524 36.68560606060606 -7.226169470584754 190 57 42
-65.75140981963186 11.325757575757576 0.1347749883478338 41 32 23
-39.96163686116537 35.45454545454545 -3.1707775231563686 146 28 26
-7.786308057380445 0.0 6.592328042695017 130 27 22
-24.826699459191524 36.43939393939394 -7.226169470584754 190 57 42
-39.96163686116537 35.208333333333336 -3.1707775231563686 148 28 29
-7.786308057380445 -0.24621212121212122 6.592328042695017 130 27 22
-24.826699459191524 36.19318181818182 -7.226169470584754 187 55 40
-65.75140981963186 11.079545454545455 0.1347749883478338 37 28 21
-39.871516372218274 34.96212121212121 -2.834444912997159 147 27 29
-7.786308057380445 -0.49242424242424243 6.592328042695017 131 26 23
-24.613472909638375 36.19318181818182 -7.103063409978693 187 55 40
-39.871516372218274 34.71590909090909 -2.834444912997159 147 26 31
-65.66128933068478 10.833333333333334 0.4711075985070431 33 30 25
-24.613472909638375 35.946969696969695 -7.103063409978693 187 56 38
-7.786308057380445 -0.7386363636363636 6.592328042695017 134 26 24
-39.78139588327119 34.46969696969697 -2.4981123028379497 144 28 29
-24.31012587113814 35.70075757575758 -6.643624739213424 186 54 39
-7.786308057380445 -0.9848484848484849 6.592328042695017 135 25 24
-39.78139588327119 34.22348484848485 -2.4981123028379497 142 28 28
-65.66128933068478 10.587121212121213 0.4711075985070431 34 30 29
-24.31012587113814 35.45454545454545 -6.643624739213424 186 54 39
-7.786308057380445 -1.231060606060606 6.592328042695017 137 25 24
-39.871516372218274 33.97727272727273 -2.834444912997159 142 29 25
-7.786308057380445 -1.4772727272727273 6.592328042695017 138 24 24
-24.31012587113814 35.208333333333336 -6.643624739213424 186 55 37
-39.871516372218274 33.73106060606061 -2.834444912997159 138 29 22
-65.66128933068478 10.340909090909092 0.4711075985070431 36 35 33
-7.786308057380445 -1.4772727272727273 6.592328042695017 136 26 27
-24.31012587113814 34.96212121212121 -6.643624739213424 186 55 37
-39.871516372218274 33.484848484848484 -2.834444912997159 138 29 22
-7.876428546327533 -1.9696969696969697 6.255995432535808 130 26 25
-24.22000538219105 34.71590909090909 -6.307292129054214 186 55 37
-39.871516372218274 33.23863636363637 -2.834444912997159 140 27 23
-65.66128933068478 10.09469696969697 0.4711075985070431 37 35 38
-7.876428546327533 -2.215909090909091 6.255995432535808 130 30 30
-24.22000538219105 34.46969696969697 -6.307292129054214 187 51 35
-39.871516372218274 32.99242424242424 -2.834444912997159 140 24 24
-8.089655095880682 -2.7083333333333335 6.132889371929747 127 28 31
-24.22000538219105 34.22348484848485 -6.307292129054214 187 51 35
-39.47804884477095 32.746212121212125 -2.03867363207268 133 28 25
-45.96795631177498 -45.79545454545455 28.899132699677438 110 61 18
-8.089655095880682 -2.9545454545454546 6.132889371929747 120 31 33
-24.31012587113814 33.97727272727273 -6.643624739213424 188 53 34
-39.47804884477095 32.5 -2.03867363207268 131 27 24
-8.450122024073746 -4.1856060606060606 4.787558931292909 84 31 25
-24.129884893243965 33.73106060606061 -5.970959518895005 184 51 36
-56.31469610965613 57.36742424242424 13.827799594763555 205 75 53
-39.47804884477095 32.25378787878788 -2.03867363207268 131 27 24
-9.237057078968395 -5.909090909090909 3.1960238832415957 42 7 1
-24.129884893243965 33.484848484848484 -5.970959518895005 182 50 37
-39.47804884477095 32.00757575757576 -2.03867363207268 131 26 23
-56.31469610965613 57.121212121212125 13.827799594763555 204 69 49
-9.237057078968395 -6.15530303030303 3.1960238832415957 23 3 0
-24.129884893243965 33.23863636363637 -5.970959518895005 179 49 35
-39.47804884477095 31.761363636363637 -2.03867363207268 133 25 23
-9.237057078968395 -6.401515151515151 3.1960238832415957 20 3 0
-23.826537854743727 33.23863636363637 -5.511520848129735 172 45 36
-39.78139588327119 31.515151515151516 -2.4981123028379497 132 23 26
-56.0113490711559 56.875 14.287238265528824 205 70 50
-9.237057078968395 -6.6477272727272725 3.1960238832415957 23 3 0
-23.826537854743727 32.99242424242424 -5.511520848129735 169 45 37
-39.47804884477095 31.268939393939394 -2.03867363207268 137 27 28
-9.450283628521543 -6.8939393939393945 3.072917822635535 17 0 0
-23.826537854743727 32.746212121212125 -5.511520848129735 162 39 31
-56.0113490711559 56.62878787878788 14.287238265528824 204 67 48
-39.78139588327119 31.022727272727273 -2.4981123028379497 130 20 23
-9.540404117468631 -7.386363636363637 2.7365852124763257 19 2 0
-23.826537854743727 32.5 -5.511520848129735 160 39 31
-39.78139588327119 30.776515151515152 -2.4981123028379497 130 20 23
-56.0113490711559 56.13636363636364 14.287238265528824 200 63 45
-23.736417365796637 32.25378787878788 -5.175188237970525 143 25 23
-9.63052460641572 -8.617424242424242 2.4002526023171167 98 17 24
-39.78139588327119 30.28409090909091 -2.4981123028379497 134 25 28
-23.736417365796637 32.00757575757576 -5.175188237970525 140 24 24
-9.720645095362809 -8.863636363636363 2.0639199921579072 93 27 31
-56.0113490711559 55.890151515151516 14.287238265528824 184 47 29
-39.47804884477095 30.28409090909091 -2.03867363207268 122 23 26
-23.736417365796637 31.761363636363637 -5.175188237970525 140 22 22
-9.63052460641572 -8.863636363636363 2.4002526023171167 96 21 26
-39.47804884477095 30.03787878787879 -2.03867363207268 115 23 24
-23.736417365796637 31.515151515151516 -5.175188237970525 139 21 21
-9.720645095362809 -9.356060606060606 2.0639199921579072 89 20 23
-56.0113490711559 55.6439393939394 14.287238265528824 176 39 23
-39.47804884477095 29.791666666666668 -2.03867363207268 111 25 24
-22.465909322102863 -14.03409090909091 -2.4515492988355234 36 11 6
-10.114112622810133 -9.602272727272727 1.268148711233428 95 20 27
-39.47804884477095 29.545454545454547 -2.03867363207268 106 30 30
-22.465909322102863 -14.280303030303031 -2.4515492988355234 27 12 5
-10.41745966131037 -10.09469696969697 0.8087100404681582 86 14 18
-56.0113490711559 55.39772727272727 14.287238265528824 200 64 48
-39.47804884477095 29.299242424242426 -2.03867363207268 91 31 30
-22.465909322102863 -14.526515151515152 -2.4515492988355234 28 17 13
-15.196174852775805 37.42424242424242 -9.626422072901871 154 32 29
-39.871516372218274 28.806818181818183 -2.834444912997159 110 31 34
-22.465909322102863 -14.772727272727273 -2.4515492988355234 27 18 13
-15.106054363828717 37.178030303030305 -9.29008946274266 143 34 27
-55.61789657130386 55.151515151515156 15.083002032655658 204 68 52
-39.871516372218274 28.560606060606062 -2.834444912997159 93 29 29
-22.465909322102863 -14.772727272727273 -2.4515492988355234 24 13 7
-14.80270732532848 36.93181818181818 -8.83065079197739 141 34 26
-39.78139588327119 28.31439393939394 -2.4981123028379497 27 0 0
-22.16256228360263 -15.018939393939394 -1.9921106280702534 26 7 1
-14.80270732532848 36.68560606060606 -8.83065079197739 143 36 26
-55.61789657130386 54.90530303030303 15.083002032655658 200 67 50
-39.871516372218274 28.06818181818182 -2.834444912997159 25 0 0
-22.465909322102863 -15.265151515151516 -2.4515492988355234 18 0 0
-14.80270732532848 36.43939393939394 -8.83065079197739 149 38 29
-39.871516372218274 27.8219696969697 -2.834444912997159 10 0 0
-21.465747717655066 -15.511363636363637 -0.7369006763805043 127 22 26
-14.712586836381393 36.19318181818182 -8.494318181818182 152 33 25
-55.61789657130386 54.65909090909091 15.083002032655658 198 67 49
-39.78139588327119 27.575757575757578 -2.4981123028379497 14 14 6
-21.37562722870798 -15.757575757575758 -0.400568066221295 133 24 27
-14.712586836381393 35.946969696969695 -8.494318181818182 154 35 27
-39.78139588327119 27.329545454545453 -2.4981123028379497 13 14 8
-21.465747717655066 -16.00378787878788 -0.7369006763805043 131 25 27
-14.712586836381393 35.70075757575758 -8.494318181818182 155 36 28
-55.19144347219756 54.41287878787879 15.32921415386778 195 70 48
-39.871516372218274 27.083333333333332 -2.834444912997159 15 11 8
-21.465747717655066 -16.25 -0.7369006763805043 134 26 26
-14.712586836381393 35.45454545454545 -8.494318181818182 155 38 31
-39.96163686116537 26.83712121212121 -3.1707775231563686 20 10 8
-21.465747717655066 -16.49621212121212 -0.7369006763805043 135 27 27
-55.19144347219756 54.166666666666664 15.32921415386778 195 69 47
-40.2649838996656 26.59090909090909 -3.630216193921638 26 17 12
-14.499360286828244 35.208333333333336 -8.371212121212121 154 39 34
-21.37562722870798 -16.742424242424242 -0.400568066221295 139 27 26
-40.2649838996656 26.098484848484848 -3.630216193921638 20 12 9
-14.499360286828244 35.208333333333336 -8.371212121212121 157 39 35
-21.37562722870798 -16.988636363636363 -0.400568066221295 141 25 26
-40.35510438861269 25.852272727272727 -3.9665488040808476 28 21 15
-14.499360286828244 34.96212121212121 -8.371212121212121 157 39 35
-55.101322983250476 53.92045454545455 15.665546764026988 193 64 43
-40.65845142711293 25.606060606060606 -4.425979961048473 24 6 2
-14.499360286828244 34.71590909090909 -8.371212121212121 157 39 35
-21.37562722870798 -16.988636363636363 -0.400568066221295 145 25 27
-40.65845142711293 25.359848484848484 -4.425979961048473 21 3 0
-14.499360286828244 34.46969696969697 -8.371212121212121 156 38 34
-21.1953862508138 -17.234848484848484 0.2720896402994792 148 25 30
-55.101322983250476 53.67424242424242 15.665546764026988 190 61 42
-41.17502501516631 24.62121212121212 -5.008524692419804 82 18 18
-14.499360286828244 34.22348484848485 -8.371212121212121 154 36 32
-21.1953862508138 -17.481060606060606 0.2720896402994792 143 27 28
-41.17502501516631 24.375 -5.008524692419804 91 23 24
-55.101322983250476 53.428030303030305 15.665546764026988 187 60 45
-21.1953862508138 -17.481060606060606 0.2720896402994792 141 29 28
-41.17502501516631 24.12878787878788 -5.008524692419804 95 33 34
-14.286133737275096 33.97727272727273 -8.24810606060606 153 35 31
-21.1953862508138 -17.727272727272727 0.2720896402994792 140 28 27
-22.721588828346945 -45.54924242424242 27.536760965983074 190 124 28
-54.797975944750235 53.18181818181818 16.124985434792258 148 40 38
-14.196028275923295 33.73106060606061 -7.9117734504468515 156 38 34
-20.768933151707504 -17.973484848484848 0.5183017615116003 140 28 27
-3.15373623009884 -52.93560606060606 63.56848630038175 56 54 42
-20.768933151707504 -18.21969696969697 0.5183017615116003 140 28 27
-14.196028275923295 33.484848484848484 -7.9117734504468515 155 37 33
-54.797975944750235 52.93560606060606 16.124985434792258 140 46 47
-40.199012756347656 55.39772727272727 -4.72932699954871 210 66 40
-20.768933151707504 -18.46590909090909 0.5183017615116003 140 28 27
-14.286133737275096 33.23863636363637 -8.24810606060606 151 33 29
-39.89566571784742 54.90530303030303 -4.2698883287834395 204 62 40
-55.101322983250476 52.68939393939394 15.665546764026988 143 40 33
-20.768933151707504 -18.71212121212121 0.5183017615116003 140 28 27
-14.196028275923295 32.99242424242424 -7.9117734504468515 153 35 31
-39.805545228900336 54.65909090909091 -3.9335557186242305 201 61 44
-20.678812662760418 -18.71212121212121 0.8546343716708097 141 27 27
-13.892681237423059 32.99242424242424 -7.452334779681582 154 36 32
-39.805545228900336 54.166666666666664 -3.9335557186242305 196 63 46
-55.85525743889086 57.36742424242424 13.524452556263316 201 69 46
-20.678812662760418 -18.958333333333332 0.8546343716708097 141 27 27
-13.892681237423059 32.746212121212125 -7.452334779681582 152 34 30
-39.502198190400094 53.92045454545455 -3.474124561656605 200 61 42
-20.678812662760418 -19.204545454545453 0.8546343716708097 141 27 27
-13.892681237423059 32.5 -7.452334779681582 149 31 27
-55.85525743889086 57.121212121212125 13.524452556263316 203 68 46
-39.502198190400094 53.67424242424242 -3.474124561656605 200 59 39
-20.678812662760418 -19.450757575757574 0.8546343716708097 141 27 27
-13.80256074847597 32.25378787878788 -7.116002169522372 151 33 29
-39.502198190400094 53.428030303030305 -3.474124561656605 199 60 41
-55.85525743889086 56.875 13.524452556263316 205 70 50
-13.80256074847597 32.00757575757576 -7.116002169522372 149 31 27
-20.588692173813328 -19.696969696969695 1.190966981830019 141 27 27
-39.41207770145301 53.18181818181818 -3.137791951497396 197 60 42
-13.80256074847597 31.761363636363637 -7.116002169522372 147 29 25
-20.588692173813328 -19.94318181818182 1.190966981830019 141 27 27
-55.551910400390625 56.62878787878788 13.983891227028586 205 70 50
-39.41207770145301 52.93560606060606 -3.137791951497396 196 61 42
-20.588692173813328 -20.18939393939394 1.190966981830019 140 26 26
-13.712440259528883 31.515151515151516 -6.779669559363163 149 31 27
-39.41207770145301 52.68939393939394 -3.137791951497396 197 62 43
-55.551910400390625 56.38257575757576 13.983891227028586 203 68 49
-20.678812662760418 -20.435606060606062 0.8546343716708097 140 26 26
-13.712440259528883 31.268939393939394 -6.779669559363163 146 28 24
