ply
format ascii 1.0
comment Java E3D tool
element vertex 727
property double x
property double y
property double z
property uint8 red
property uint8 green
property uint8 blue
end_header
24.62121212121212 -35.946969696969695 -0.9848484848484849 44 43 41
4.924242424242424 9.109848484848484 -21.91287878787879 131 24 18
18.46590909090909 -42.10227272727273 -22.15909090909091 129 68 24
24.867424242424242 -35.946969696969695 -1.231060606060606 35 34 32
5.170454545454546 8.863636363636363 -22.15909090909091 129 24 18
18.958333333333332 -45.303030303030305 -22.897727272727273 156 81 42
23.882575757575758 24.867424242424242 -16.742424242424242 128 47 46
25.852272727272727 -35.70075757575758 -2.462121212121212 25 21 20
4.924242424242424 8.617424242424242 -21.91287878787879 134 25 22
18.958333333333332 -45.303030303030305 -22.897727272727273 158 77 30
23.882575757575758 24.62121212121212 -16.49621212121212 114 43 41
26.098484848484848 -35.70075757575758 -2.9545454545454546 37 33 32
4.924242424242424 8.371212121212121 -21.91287878787879 134 24 23
19.204545454545453 -45.54924242424242 -22.897727272727273 156 75 19
11.325757575757576 0.7386363636363636 0.24621212121212122 163 35 36
25.852272727272727 -35.946969696969695 -2.7083333333333335 43 39 38
4.924242424242424 8.371212121212121 -21.91287878787879 120 30 29
19.450757575757574 -45.54924242424242 -23.390151515151516 159 80 14
11.571969696969697 0.49242424242424243 0.0 165 31 32
25.852272727272727 -36.19318181818182 -2.7083333333333335 40 36 35
4.924242424242424 8.125 -21.91287878787879 110 29 26
19.696969696969695 -45.303030303030305 -23.882575757575758 157 81 6
12.06439393939394 0.0 -0.7386363636363636 153 33 32
25.852272727272727 -36.43939393939394 -2.7083333333333335 36 30 30
4.678030303030303 7.878787878787879 -21.666666666666668 92 26 27
27.329545454545453 -44.81060606060606 -33.23863636363637 216 160 77
12.31060606060606 0.0 -0.9848484848484849 152 32 33
25.852272727272727 -36.68560606060606 -2.7083333333333335 33 27 27
3.6931818181818183 7.140151515151516 -20.681818181818183 71 15 14
27.083333333333332 -45.05681818181818 -32.746212121212125 160 105 40
12.31060606060606 -0.24621212121212122 -0.9848484848484849 152 29 32
25.852272727272727 -36.68560606060606 -2.7083333333333335 33 27 27
3.6931818181818183 6.8939393939393945 -20.435606060606062 40 5 3
-5.662878787878788 -38.40909090909091 -28.31439393939394 72 76 87
40.13257575757576 -45.05681818181818 -48.50378787878788 37 39 34
25.852272727272727 -36.93181818181818 -2.7083333333333335 34 28 28
3.4469696969696972 6.6477272727272725 -20.18939393939394 35 14 13
25.852272727272727 -37.178030303030305 -2.7083333333333335 35 29 29
3.4469696969696972 6.401515151515151 -20.18939393939394 28 16 16
-5.662878787878788 -38.40909090909091 -28.560606060606062 66 70 81
25.852272727272727 -37.42424242424242 -2.7083333333333335 36 30 30
40.37878787878788 -45.05681818181818 -48.75 40 42 37
-4.1856060606060606 3.4469696969696972 -20.928030303030305 27 18 21
3.2007575757575757 6.15530303030303 -19.94318181818182 29 17 21
25.852272727272727 -37.67045454545455 -2.7083333333333335 38 30 28
-5.662878787878788 -38.65530303030303 -28.560606060606062 68 72 83
12.803030303030303 -35.45454545454545 -16.00378787878788 34 32 35
3.2007575757575757 5.909090909090909 -19.94318181818182 29 17 21
-4.1856060606060606 3.4469696969696972 -20.928030303030305 27 18 21
2.9545454545454546 5.662878787878788 -19.696969696969695 32 16 19
-4.678030303030303 2.9545454545454546 -20.435606060606062 28 19 20
16.49621212121212 -35.45454545454545 -20.435606060606062 34 30 31
-5.416666666666667 -38.65530303030303 -28.560606060606062 67 71 82
2.9545454545454546 5.416666666666667 -19.450757575757574 31 17 17
-4.678030303030303 2.7083333333333335 -20.435606060606062 28 19 20
26.098484848484848 -37.67045454545455 -2.9545454545454546 34 26 24
16.49621212121212 -35.70075757575758 -20.435606060606062 34 28 30
2.7083333333333335 5.170454545454546 -19.450757575757574 29 17 17
-4.678030303030303 2.462121212121212 -20.435606060606062 26 17 18
25.852272727272727 -38.16287878787879 -2.7083333333333335 34 26 24
16.49621212121212 -35.70075757575758 -20.681818181818183 39 29 30
-5.170454545454546 -38.90151515151515 -28.806818181818183 66 68 80
-4.924242424242424 2.215909090909091 -20.18939393939394 24 15 16
25.852272727272727 -38.16287878787879 -2.7083333333333335 32 24 22
16.49621212121212 -35.946969696969695 -20.681818181818183 41 29 29
2.7083333333333335 4.924242424242424 -19.450757575757574 28 18 16
-5.170454545454546 1.9696969696969697 -19.696969696969695 24 15 16
25.852272727272727 -38.40909090909091 -2.7083333333333335 31 26 23
16.49621212121212 -36.19318181818182 -20.435606060606062 43 31 31
-5.170454545454546 -38.90151515151515 -28.806818181818183 59 62 71
2.462121212121212 4.678030303030303 -19.204545454545453 29 17 19
-5.909090909090909 1.4772727272727273 -18.958333333333332 26 16 17
26.34469696969697 -38.40909090909091 -3.2007575757575757 38 30 27
16.49621212121212 -36.43939393939394 -20.435606060606062 47 31 32
2.215909090909091 4.431818181818182 -18.958333333333332 29 17 19
-6.15530303030303 1.231060606060606 -18.958333333333332 25 15 16
26.098484848484848 -38.90151515151515 -2.9545454545454546 42 37 33
16.49621212121212 -36.68560606060606 -20.435606060606062 49 31 31
-4.924242424242424 -39.14772727272727 -29.053030303030305 48 46 57
2.215909090909091 4.431818181818182 -18.958333333333332 28 16 18
-6.15530303030303 1.231060606060606 -18.958333333333332 24 14 15
26.34469696969697 -38.90151515151515 -3.2007575757575757 46 38 35
16.49621212121212 -36.68560606060606 -20.435606060606062 49 30 32
-4.924242424242424 -39.39393939393939 -29.053030303030305 38 35 42
-6.15530303030303 0.9848484848484849 -18.71212121212121 24 12 14
2.215909090909091 3.9393939393939394 -18.71212121212121 27 15 17
26.59090909090909 -38.90151515151515 -3.6931818181818183 45 35 33
16.49621212121212 -36.93181818181818 -20.435606060606062 49 31 31
-4.924242424242424 -39.39393939393939 -29.053030303030305 37 32 38
1.9696969696969697 3.6931818181818183 -18.46590909090909 27 15 17
-6.6477272727272725 0.49242424242424243 -18.21969696969697 26 14 16
26.59090909090909 -39.14772727272727 -3.4469696969696972 50 42 39
16.49621212121212 -37.178030303030305 -20.435606060606062 48 30 30
-4.924242424242424 -39.640151515151516 -29.053030303030305 40 34 38
1.7234848484848486 3.4469696969696972 -18.21969696969697 27 17 18
-6.8939393939393945 0.24621212121212122 -17.973484848484848 28 16 18
16.49621212121212 -37.42424242424242 -20.435606060606062 47 31 31
21.666666666666668 61.553030303030305 3.6931818181818183 166 24 23
1.4772727272727273 3.2007575757575757 -18.21969696969697 28 18 19
-7.386363636363637 0.0 -17.481060606060606 30 16 16
16.49621212121212 -37.42424242424242 -20.435606060606062 46 32 32
21.666666666666668 61.30681818181818 3.6931818181818183 163 23 24
-4.924242424242424 -39.88636363636364 -29.053030303030305 44 35 38
1.4772727272727273 2.9545454545454546 -18.21969696969697 29 19 20
-7.878787878787879 -0.49242424242424243 -16.988636363636363 30 16 16
16.49621212121212 -37.67045454545455 -20.435606060606062 42 30 30
21.420454545454547 61.06060606060606 3.9393939393939394 165 20 23
-4.924242424242424 -40.13257575757576 -29.053030303030305 44 34 35
1.4772727272727273 2.7083333333333335 -17.973484848484848 30 19 23
-7.878787878787879 -0.7386363636363636 -16.988636363636363 29 15 15
21.420454545454547 60.81439393939394 3.9393939393939394 162 22 23
16.49621212121212 -37.916666666666664 -20.435606060606062 37 28 29
-4.924242424242424 -40.13257575757576 -29.053030303030305 50 39 35
1.231060606060606 2.462121212121212 -17.727272727272727 28 17 21
-8.125 -0.9848484848484849 -16.49621212121212 31 15 16
21.420454545454547 60.56818181818182 3.9393939393939394 159 23 23
16.49621212121212 -38.16287878787879 -20.435606060606062 34 28 28
1.231060606060606 2.462121212121212 -17.727272727272727 28 17 21
-4.924242424242424 -40.37878787878788 -29.299242424242426 49 36 30
-9.109848484848484 -1.4772727272727273 -15.511363636363637 34 18 19
16.742424242424242 -38.16287878787879 -20.681818181818183 31 29 30
21.420454545454547 60.321969696969695 3.9393939393939394 157 23 22
1.231060606060606 2.215909090909091 -17.727272727272727 28 17 21
-9.109848484848484 -1.7234848484848486 -15.757575757575758 35 19 20
-4.924242424242424 -40.37878787878788 -29.299242424242426 51 36 31
16.742424242424242 -38.40909090909091 -20.681818181818183 32 32 32
21.420454545454547 60.07575757575758 4.1856060606060606 156 24 22
0.9848484848484849 1.9696969696969697 -17.481060606060606 25 16 19
-10.09469696969697 -2.215909090909091 -14.526515151515152 34 15 17
-4.924242424242424 -40.625 -29.299242424242426 53 38 33
16.988636363636363 -38.40909090909091 -20.928030303030305 27 31 34
21.420454545454547 59.82954545454545 4.1856060606060606 151 23 20
0.9848484848484849 1.7234848484848486 -17.481060606060606 24 15 18
-11.571969696969697 -2.9545454545454546 -13.049242424242424 36 20 21
16.988636363636363 -38.65530303030303 -20.928030303030305 26 30 33
21.420454545454547 59.583333333333336 4.1856060606060606 150 25 23
-4.924242424242424 -40.871212121212125 -29.299242424242426 57 40 33
-14.526515151515152 -4.1856060606060606 -9.602272727272727 55 14 12
0.7386363636363636 1.4772727272727273 -16.988636363636363 25 16 19
16.988636363636363 -38.90151515151515 -20.928030303030305 29 30 34
21.420454545454547 59.583333333333336 4.1856060606060606 149 25 23
-14.280303030303031 -4.431818181818182 -9.848484848484848 60 14 14
0.49242424242424243 0.9848484848484849 -16.742424242424242 24 15 18
-4.924242424242424 -41.11742424242424 -29.299242424242426 62 41 36
21.174242424242426 59.33712121212121 4.431818181818182 149 23 24
17.234848484848484 -38.90151515151515 -21.174242424242426 32 33 35
-7.878787878787879 -35.70075757575758 -16.988636363636363 69 67 70
0.24621212121212122 0.7386363636363636 -16.49621212121212 23 14 17
-4.924242424242424 -41.11742424242424 -29.299242424242426 72 49 43
17.234848484848484 -38.90151515151515 -21.420454545454547 33 33 33
21.174242424242426 59.09090909090909 4.431818181818182 148 22 23
0.0 0.49242424242424243 -16.49621212121212 23 14 17
-0.49242424242424243 -35.45454545454545 -24.867424242424242 60 60 70
-4.924242424242424 -41.36363636363637 -29.299242424242426 82 55 46
21.174242424242426 58.84469696969697 4.431818181818182 148 22 25
17.234848484848484 -39.14772727272727 -21.420454545454547 29 29 29
-0.49242424242424243 -35.70075757575758 -24.867424242424242 51 51 61
0.0 0.24621212121212122 -16.25 24 15 18
-4.678030303030303 -41.609848484848484 -29.299242424242426 76 46 36
17.234848484848484 -39.39393939393939 -21.420454545454547 33 29 28
21.174242424242426 58.59848484848485 4.431818181818182 148 22 25
-0.24621212121212122 0.0 -15.757575757575758 24 15 20
1.4772727272727273 -35.45454545454545 -27.329545454545453 52 54 66
17.481060606060606 -39.39393939393939 -21.666666666666668 42 38 35
21.174242424242426 58.35227272727273 4.431818181818182 150 21 25
-4.678030303030303 -41.609848484848484 -29.299242424242426 75 41 29
1.4772727272727273 -35.70075757575758 -27.329545454545453 58 61 70
0.0 -0.24621212121212122 -16.00378787878788 24 15 18
20.928030303030305 58.10606060606061 4.678030303030303 150 21 25
17.481060606060606 -39.640151515151516 -21.666666666666668 41 33 31
-4.431818181818182 -41.85606060606061 -29.545454545454547 96 57 40
1.4772727272727273 -35.946969696969695 -27.329545454545453 29 29 39
-0.24621212121212122 -0.49242424242424243 -15.757575757575758 24 15 18
20.928030303030305 57.859848484848484 4.678030303030303 150 22 23
17.481060606060606 -39.88636363636364 -21.666666666666668 43 35 32
-4.431818181818182 -41.85606060606061 -29.791666666666668 107 64 45
-0.7386363636363636 -0.7386363636363636 -15.265151515151516 24 15 18
1.4772727272727273 -36.19318181818182 -27.329545454545453 31 31 41
17.481060606060606 -40.13257575757576 -21.666666666666668 48 37 33
20.928030303030305 57.61363636363637 4.678030303030303 150 22 23
-0.7386363636363636 -0.9848484848484849 -15.265151515151516 25 16 19
1.4772727272727273 -36.19318181818182 -27.329545454545453 23 23 31
-3.9393939393939394 -42.10227272727273 -30.03787878787879 114 69 40
20.928030303030305 57.36742424242424 4.678030303030303 148 22 23
17.481060606060606 -40.13257575757576 -21.666666666666668 47 36 30
-0.7386363636363636 -1.231060606060606 -15.265151515151516 24 15 18
1.231060606060606 -36.68560606060606 -27.083333333333332 20 20 28
20.681818181818183 57.36742424242424 4.924242424242424 147 21 22
-2.9545454545454546 -44.81060606060606 -31.268939393939394 71 24 0
17.481060606060606 -40.37878787878788 -21.666666666666668 47 34 28
-0.7386363636363636 -1.4772727272727273 -15.265151515151516 24 15 18
1.9696969696969697 -36.43939393939394 -27.575757575757578 20 20 28
20.681818181818183 57.121212121212125 5.170454545454546 147 21 22
17.481060606060606 -40.625 -21.666666666666668 47 32 25
-3.2007575757575757 -45.303030303030305 -30.776515151515152 166 89 33
-0.9848484848484849 -1.7234848484848486 -14.772727272727273 25 14 18
1.9696969696969697 -36.68560606060606 -27.575757575757578 60 60 68
20.681818181818183 56.875 4.924242424242424 147 21 22
17.481060606060606 -40.871212121212125 -21.666666666666668 50 33 26
-2.9545454545454546 -45.303030303030305 -31.022727272727273 170 95 27
1.7234848484848486 -36.93181818181818 -27.329545454545453 40 40 50
-0.9848484848484849 -1.9696969696969697 -14.772727272727273 24 13 17
20.681818181818183 56.62878787878788 4.924242424242424 147 21 22
17.481060606060606 -41.11742424242424 -21.666666666666668 53 34 28
-2.462121212121212 -45.303030303030305 -31.515151515151516 174 103 23
1.9696969696969697 -36.93181818181818 -27.575757575757578 40 40 50
17.481060606060606 -41.11742424242424 -21.666666666666668 56 35 30
20.681818181818183 56.38257575757576 5.170454545454546 146 20 21
-1.7234848484848486 -2.215909090909091 -14.280303030303031 23 14 17
1.9696969696969697 -37.178030303030305 -27.575757575757578 34 37 46
4.1856060606060606 -44.81060606060606 -38.65530303030303 192 134 70
17.481060606060606 -41.36363636363637 -21.666666666666668 61 34 27
20.18939393939394 55.890151515151516 5.909090909090909 146 20 21
-1.7234848484848486 -2.7083333333333335 -14.03409090909091 23 14 17
1.9696969696969697 -37.42424242424242 -27.8219696969697 36 39 48
17.481060606060606 -41.609848484848484 -21.666666666666668 68 38 27
3.9393939393939394 -45.303030303030305 -38.40909090909091 107 51 0
-1.9696969696969697 -2.9545454545454546 -13.787878787878789 22 13 16
2.215909090909091 -37.42424242424242 -28.06818181818182 36 40 51
20.18939393939394 55.6439393939394 5.909090909090909 149 21 22
17.727272727272727 -41.609848484848484 -21.91287878787879 88 50 31
-8.125 50.22727272727273 -26.59090909090909 187 49 38
-2.215909090909091 -3.2007575757575757 -13.541666666666666 20 14 14
2.462121212121212 -37.42424242424242 -28.31439393939394 42 46 57
19.94318181818182 55.39772727272727 6.15530303030303 148 19 23
17.727272727272727 -41.85606060606061 -21.91287878787879 108 61 35
2.462121212121212 -37.67045454545455 -28.06818181818182 43 43 53
-1.7234848484848486 -35.946969696969695 -14.03409090909091 40 41 45
19.94318181818182 55.151515151515156 6.15530303030303 150 19 24
17.973484848484848 -41.85606060606061 -22.15909090909091 117 63 29
-8.371212121212121 50.22727272727273 -26.34469696969697 162 32 30
-1.7234848484848486 -35.946969696969695 -14.280303030303031 48 49 53
2.462121212121212 -37.67045454545455 -28.31439393939394 44 44 54
19.94318181818182 54.90530303030303 6.15530303030303 150 19 24
17.973484848484848 -42.10227272727273 -22.15909090909091 122 64 27
6.401515151515151 -35.45454545454545 -23.390151515151516 47 46 54
-9.356060606060606 49.98106060606061 -25.359848484848484 139 13 16
18.21969696969697 -42.10227272727273 -22.40530303030303 129 67 28
19.94318181818182 54.65909090909091 6.15530303030303 150 19 24
2.7083333333333335 -37.916666666666664 -28.560606060606062 45 45 55
7.878787878787879 -35.70075757575758 -25.113636363636363 35 36 41
18.71212121212121 -45.303030303030305 -23.143939393939394 156 81 39
-9.602272727272727 49.734848484848484 -25.113636363636363 160 59 63
2.9545454545454546 -37.916666666666664 -28.806818181818183 44 44 56
8.125 -35.70075757575758 -25.606060606060606 77 78 83
19.94318181818182 54.65909090909091 6.15530303030303 151 20 25
18.71212121212121 -45.303030303030305 -23.143939393939394 160 79 26
3.2007575757575757 -38.16287878787879 -28.806818181818183 44 46 58
7.878787878787879 -35.946969696969695 -25.113636363636363 51 54 59
-8.617424242424242 49.24242424242424 -26.098484848484848 37 22 17
19.94318181818182 54.41287878787879 6.15530303030303 153 20 23
18.958333333333332 -45.303030303030305 -23.390151515151516 154 72 12
3.2007575757575757 -38.16287878787879 -29.053030303030305 44 46 58
7.632575757575758 -36.19318181818182 -25.113636363636363 35 36 40
-8.371212121212121 49.24242424242424 -26.34469696969697 31 22 15
19.94318181818182 54.166666666666664 6.401515151515151 154 21 24
19.204545454545453 -45.303030303030305 -23.882575757575758 159 80 11
3.2007575757575757 -38.40909090909091 -29.053030303030305 42 46 57
7.878787878787879 -36.43939393939394 -25.113636363636363 31 32 36
-8.125 48.996212121212125 -26.59090909090909 46 31 28
19.94318181818182 53.92045454545455 6.401515151515151 156 21 25
19.696969696969695 -45.303030303030305 -24.12878787878788 164 86 11
3.4469696969696972 -38.40909090909091 -29.299242424242426 40 44 55
7.632575757575758 -36.68560606060606 -24.867424242424242 23 24 28
-8.125 48.75 -26.59090909090909 51 31 30
19.696969696969695 53.67424242424242 6.6477272727272725 156 21 25
19.94318181818182 -45.303030303030305 -24.62121212121212 195 120 37
3.4469696969696972 -38.65530303030303 -29.299242424242426 44 51 61
7.632575757575758 -36.93181818181818 -25.113636363636363 27 28 32
-7.878787878787879 48.75 -26.83712121212121 25 5 6
26.83712121212121 -45.05681818181818 -32.99242424242424 200 146 76
19.696969696969695 53.428030303030305 6.6477272727272725 158 22 26
7.632575757575758 -37.178030303030305 -25.113636363636363 19 22 27
3.6931818181818183 -38.65530303030303 -29.545454545454547 35 42 52
40.13257575757576 -45.05681818181818 -48.75 36 38 33
-8.371212121212121 48.50378787878788 -26.34469696969697 102 78 76
19.450757575757574 53.18181818181818 6.8939393939393945 157 21 25
3.6931818181818183 -38.90151515151515 -29.545454545454547 36 43 53
7.632575757575758 -37.178030303030305 -25.113636363636363 13 16 21
8.863636363636363 56.38257575757576 -11.079545454545455 207 70 51
19.696969696969695 52.93560606060606 6.6477272727272725 159 23 27
-7.878787878787879 48.25757575757576 -26.83712121212121 165 151 148
7.632575757575758 -37.67045454545455 -24.867424242424242 26 29 34
9.109848484848484 56.13636363636364 -11.079545454545455 185 44 34
3.9393939393939394 -38.90151515151515 -29.791666666666668 35 41 53
19.450757575757574 52.68939393939394 6.8939393939393945 159 23 27
-6.401515151515151 47.02651515151515 -28.31439393939394 176 42 33
8.371212121212121 -37.178030303030305 -25.852272727272727 52 53 58
9.109848484848484 55.890151515151516 -11.079545454545455 170 27 19
3.9393939393939394 -39.14772727272727 -29.791666666666668 40 44 56
19.696969696969695 52.44318181818182 6.6477272727272725 159 20 25
8.371212121212121 -37.42424242424242 -25.852272727272727 39 42 47
8.863636363636363 55.6439393939394 -11.079545454545455 170 28 18
4.1856060606060606 -39.14772727272727 -30.03787878787879 36 40 52
-6.401515151515151 46.78030303030303 -28.31439393939394 171 33 23
19.696969696969695 52.196969696969695 6.6477272727272725 159 20 25
8.371212121212121 -37.67045454545455 -25.852272727272727 38 41 46
8.863636363636363 55.39772727272727 -11.079545454545455 166 22 14
4.1856060606060606 -39.14772727272727 -30.28409090909091 40 42 54
19.450757575757574 52.196969696969695 6.8939393939393945 157 21 25
-6.401515151515151 46.53409090909091 -28.31439393939394 170 32 22
8.617424242424242 -37.67045454545455 -26.098484848484848 38 41 48
4.1856060606060606 -39.39393939393939 -30.28409090909091 41 43 55
8.863636363636363 55.39772727272727 -11.079545454545455 169 24 19
19.450757575757574 51.95075757575758 6.8939393939393945 157 21 25
8.617424242424242 -37.916666666666664 -26.098484848484848 32 35 42
-6.401515151515151 46.53409090909091 -28.31439393939394 161 29 24
8.863636363636363 55.151515151515156 -11.079545454545455 171 26 23
19.450757575757574 51.70454545454545 6.8939393939393945 157 21 25
4.431818181818182 -39.39393939393939 -30.28409090909091 47 47 59
8.863636363636363 -37.916666666666664 -26.34469696969697 39 42 49
8.863636363636363 54.90530303030303 -11.079545454545455 167 23 22
-6.6477272727272725 46.28787878787879 -28.06818181818182 158 31 25
19.450757575757574 51.458333333333336 6.8939393939393945 156 20 24
4.678030303030303 -39.640151515151516 -30.53030303030303 36 36 48
9.109848484848484 -37.916666666666664 -26.59090909090909 45 45 53
8.863636363636363 54.65909090909091 -11.079545454545455 166 22 22
-6.401515151515151 46.041666666666664 -28.31439393939394 156 28 25
19.204545454545453 51.21212121212121 7.140151515151516 156 20 24
4.924242424242424 -39.640151515151516 -30.776515151515152 27 25 38
9.109848484848484 -38.16287878787879 -26.59090909090909 42 45 52
8.617424242424242 54.41287878787879 -10.833333333333334 166 22 22
19.204545454545453 50.96590909090909 7.140151515151516 156 20 24
-6.401515151515151 45.79545454545455 -28.31439393939394 153 28 24
4.924242424242424 -40.13257575757576 -30.776515151515152 74 72 83
8.617424242424242 54.166666666666664 -10.833333333333334 165 21 21
9.356060606060606 -38.16287878787879 -26.83712121212121 37 40 47
19.204545454545453 50.71969696969697 7.140151515151516 156 22 23
-6.401515151515151 45.79545454545455 -28.31439393939394 150 27 22
4.924242424242424 -40.13257575757576 -30.776515151515152 31 29 40
8.617424242424242 54.166666666666664 -10.833333333333334 163 18 21
9.356060606060606 -38.40909090909091 -26.83712121212121 39 39 49
19.204545454545453 50.47348484848485 7.140151515151516 153 20 23
-6.401515151515151 45.54924242424242 -28.560606060606062 148 26 21
8.371212121212121 53.92045454545455 -10.587121212121213 164 19 22
4.924242424242424 -40.37878787878788 -30.776515151515152 36 33 42
9.602272727272727 -38.40909090909091 -27.083333333333332 38 38 48
19.204545454545453 50.22727272727273 7.140151515151516 153 22 28
8.371212121212121 53.67424242424242 -10.340909090909092 164 19 24
9.602272727272727 -38.65530303030303 -27.083333333333332 39 39 49
4.924242424242424 -40.625 -30.776515151515152 28 25 32
19.204545454545453 49.98106060606061 7.386363636363637 149 22 29
8.371212121212121 53.428030303030305 -10.340909090909092 163 18 23
-6.401515151515151 45.303030303030305 -28.31439393939394 146 24 21
9.848484848484848 -38.65530303030303 -27.329545454545453 39 39 49
4.924242424242424 -40.871212121212125 -30.776515151515152 29 24 31
19.204545454545453 49.734848484848484 7.386363636363637 145 22 25
8.371212121212121 53.18181818181818 -10.587121212121213 161 18 22
9.848484848484848 -38.90151515151515 -27.575757575757578 40 38 49
4.924242424242424 -40.871212121212125 -31.022727272727273 24 22 25
-6.401515151515151 45.05681818181818 -28.31439393939394 143 25 21
19.204545454545453 49.48863636363637 7.386363636363637 145 26 22
8.371212121212121 52.93560606060606 -10.587121212121213 161 18 22
10.09469696969697 -38.90151515151515 -27.8219696969697 39 38 46
4.924242424242424 -41.11742424242424 -31.022727272727273 26 22 23
19.204545454545453 49.48863636363637 7.386363636363637 142 21 12
-6.401515151515151 45.05681818181818 -28.31439393939394 140 25 20
8.371212121212121 52.93560606060606 -10.587121212121213 161 18 22
10.09469696969697 -39.14772727272727 -27.8219696969697 42 39 50
4.924242424242424 -41.11742424242424 -31.022727272727273 28 24 23
18.958333333333332 49.24242424242424 7.632575757575758 127 8 0
8.371212121212121 52.68939393939394 -10.587121212121213 159 19 22
-6.401515151515151 44.81060606060606 -28.31439393939394 137 26 19
10.340909090909092 -39.14772727272727 -28.06818181818182 40 40 48
4.924242424242424 -41.36363636363637 -31.022727272727273 32 27 24
18.958333333333332 48.996212121212125 7.632575757575758 157 32 36
8.371212121212121 52.44318181818182 -10.340909090909092 160 20 21
10.340909090909092 -39.14772727272727 -28.06818181818182 40 40 48
4.924242424242424 -41.609848484848484 -31.022727272727273 36 31 27
-6.401515151515151 44.56439393939394 -28.31439393939394 135 23 19
8.371212121212121 52.196969696969695 -10.340909090909092 159 19 18
26.83712121212121 -41.85606060606061 -3.9393939393939394 84 55 41
10.340909090909092 -39.39393939393939 -28.06818181818182 38 41 48
4.924242424242424 -41.85606060606061 -31.022727272727273 40 33 27
-6.401515151515151 44.31818181818182 -28.560606060606062 132 25 19
17.234848484848484 45.79545454545455 -21.420454545454547 48 49 77
27.083333333333332 -42.10227272727273 -4.1856060606060606 100 65 46
10.587121212121213 -39.39393939393939 -28.31439393939394 34 39 45
4.924242424242424 -41.85606060606061 -31.022727272727273 42 33 26
17.481060606060606 45.54924242424242 -21.666666666666668 48 49 77
-6.401515151515151 44.31818181818182 -28.560606060606062 130 25 19
10.833333333333334 -39.640151515151516 -28.560606060606062 40 43 50
4.924242424242424 -42.10227272727273 -31.022727272727273 40 25 18
27.083333333333332 -42.10227272727273 -4.431818181818182 102 61 41
17.727272727272727 45.303030303030305 -21.91287878787879 47 48 76
10.833333333333334 -39.88636363636364 -28.560606060606062 33 36 43
-6.401515151515151 44.071969696969695 -28.560606060606062 124 21 14
17.727272727272727 45.05681818181818 -21.91287878787879 46 48 73
27.329545454545453 -42.10227272727273 -4.678030303030303 106 64 40
5.170454545454546 -42.10227272727273 -31.022727272727273 46 29 22
11.079545454545455 -39.640151515151516 -28.806818181818183 56 50 50
17.727272727272727 45.05681818181818 -21.91287878787879 42 44 69
-6.15530303030303 43.82575757575758 -28.560606060606062 127 25 20
27.575757575757578 -42.34848484848485 -4.924242424242424 108 64 39
4.924242424242424 -42.59469696969697 -30.776515151515152 61 35 34
10.833333333333334 -40.13257575757576 -28.560606060606062 77 77 79
17.727272727272727 44.81060606060606 -21.91287878787879 42 44 69
27.575757575757578 -42.34848484848485 -5.170454545454546 107 63 36
-6.15530303030303 43.57954545454545 -28.560606060606062 125 40 35
4.924242424242424 -42.84090909090909 -30.776515151515152 72 42 42
10.833333333333334 -40.37878787878788 -28.560606060606062 47 48 53
17.727272727272727 44.56439393939394 -21.91287878787879 43 45 70
27.8219696969697 -42.34848484848485 -5.416666666666667 104 60 33
-6.401515151515151 43.57954545454545 -28.31439393939394 81 23 21
4.924242424242424 -42.84090909090909 -31.022727272727273 78 49 45
10.340909090909092 -40.625 -28.06818181818182 27 26 34
28.06818181818182 -42.59469696969697 -5.662878787878788 98 57 29
17.973484848484848 44.31818181818182 -22.15909090909091 42 44 67
5.170454545454546 -42.84090909090909 -31.022727272727273 80 53 42
-6.6477272727272725 43.333333333333336 -28.06818181818182 26 0 0
28.06818181818182 -42.59469696969697 -5.909090909090909 95 53 28
18.21969696969697 44.31818181818182 -22.40530303030303 41 43 66
10.833333333333334 -40.625 -28.560606060606062 33 27 37
4.1856060606060606 -45.303030303030305 -30.28409090909091 156 95 51
18.21969696969697 44.071969696969695 -22.40530303030303 41 43 66
-6.401515151515151 43.08712121212121 -28.31439393939394 29 10 6
28.806818181818183 -45.54924242424242 -6.8939393939393945 143 73 24
4.431818181818182 -45.303030303030305 -30.28409090909091 157 82 24
10.587121212121213 -41.11742424242424 -28.31439393939394 30 27 34
18.21969696969697 43.82575757575758 -22.651515151515152 40 42 65
29.053030303030305 -45.54924242424242 -7.140151515151516 150 75 20
-6.401515151515151 42.84090909090909 -28.31439393939394 26 18 15
4.678030303030303 -45.54924242424242 -30.53030303030303 165 86 17
9.848484848484848 -41.609848484848484 -27.575757575757578 33 26 33
18.21969696969697 43.57954545454545 -22.651515151515152 40 42 63
29.299242424242426 -45.54924242424242 -7.632575757575758 150 75 18
10.833333333333334 -44.81060606060606 -37.178030303030305 216 158 84
10.09469696969697 -41.609848484848484 -27.8219696969697 36 30 34
-6.401515151515151 42.59469696969697 -28.31439393939394 21 21 21
29.545454545454547 -45.54924242424242 -8.125 149 77 19
18.21969696969697 43.57954545454545 -22.651515151515152 40 42 63
10.587121212121213 -45.303030303030305 -36.93181818181818 114 62 5
10.09469696969697 -41.85606060606061 -27.8219696969697 36 30 32
30.03787878787879 -45.54924242424242 -8.617424242424242 153 78 20
18.21969696969697 43.333333333333336 -22.651515151515152 40 42 63
-6.401515151515151 42.59469696969697 -28.31439393939394 14 15 17
0.7386363636363636 31.268939393939394 -27.083333333333332 156 37 31
10.833333333333334 -41.609848484848484 -28.560606060606062 33 30 25
30.28409090909091 -45.303030303030305 -9.109848484848484 156 82 21
18.21969696969697 43.08712121212121 -22.651515151515152 40 42 63
0.7386363636363636 31.022727272727273 -27.083333333333332 156 37 31
10.340909090909092 -42.10227272727273 -28.06818181818182 35 32 27
-6.401515151515151 42.34848484848485 -28.31439393939394 14 7 14
30.53030303030303 -45.54924242424242 -9.356060606060606 158 84 21
18.46590909090909 42.84090909090909 -22.897727272727273 38 41 60
0.7386363636363636 30.776515151515152 -27.083333333333332 156 37 31
10.833333333333334 -42.10227272727273 -28.560606060606062 40 33 25
30.776515151515152 -45.54924242424242 -9.848484848484848 160 86 21
18.46590909090909 42.84090909090909 -22.897727272727273 39 42 61
-6.401515151515151 42.10227272727273 -28.31439393939394 16 5 13
0.7386363636363636 30.776515151515152 -27.083333333333332 155 36 30
10.833333333333334 -42.10227272727273 -28.560606060606062 40 31 22
31.022727272727273 -45.303030303030305 -10.340909090909092 164 91 22
18.46590909090909 42.59469696969697 -22.897727272727273 39 42 61
0.7386363636363636 30.53030303030303 -27.083333333333332 155 36 30
-6.6477272727272725 41.85606060606061 -28.06818181818182 22 7 14
10.833333333333334 -42.34848484848485 -28.560606060606062 45 35 25
18.46590909090909 42.34848484848485 -22.897727272727273 39 42 61
31.515151515151516 -45.303030303030305 -10.833333333333334 166 94 22
0.7386363636363636 30.28409090909091 -27.083333333333332 154 35 29
10.833333333333334 -42.59469696969697 -28.560606060606062 52 36 23
-6.8939393939393945 41.85606060606061 -27.8219696969697 20 9 15
18.71212121212121 42.10227272727273 -23.143939393939394 40 41 61
31.515151515151516 -45.54924242424242 -10.833333333333334 166 94 20
0.9848484848484849 30.28409090909091 -27.329545454545453 154 35 29
10.833333333333334 -42.59469696969697 -28.560606060606062 48 30 16
18.71212121212121 42.10227272727273 -23.143939393939394 39 40 60
32.00757575757576 -45.303030303030305 -11.325757575757576 171 99 23
-6.8939393939393945 41.609848484848484 -27.8219696969697 17 11 15
0.9848484848484849 30.03787878787879 -27.329545454545453 154 35 29
10.833333333333334 -42.84090909090909 -28.560606060606062 61 43 29
18.71212121212121 41.85606060606061 -23.143939393939394 39 40 58
32.5 -45.303030303030305 -12.31060606060606 172 104 23
0.7386363636363636 29.791666666666668 -27.083333333333332 154 35 29
-7.140151515151516 41.36363636363637 -27.575757575757578 14 12 15
11.079545454545455 -42.84090909090909 -28.806818181818183 98 76 62
18.71212121212121 41.609848484848484 -23.143939393939394 38 39 57
44.071969696969695 -44.071969696969695 -29.053030303030305 224 165 73
0.9848484848484849 29.545454545454547 -27.329545454545453 153 34 28
11.079545454545455 -43.08712121212121 -28.806818181818183 95 71 59
-7.140151515151516 41.11742424242424 -27.575757575757578 16 11 15
18.71212121212121 41.36363636363637 -23.143939393939394 35 37 52
43.82575757575758 -44.56439393939394 -28.560606060606062 204 147 78
1.231060606060606 29.545454545454547 -27.575757575757578 151 32 26
11.079545454545455 -43.333333333333336 -28.806818181818183 66 39 32
-7.140151515151516 40.871212121212125 -27.575757575757578 17 12 16
18.71212121212121 41.11742424242424 -23.143939393939394 35 37 52
50.96590909090909 -45.303030303030305 -38.40909090909091 21 23 12
10.587121212121213 -45.303030303030305 -28.31439393939394 153 84 45
1.231060606060606 29.299242424242426 -27.575757575757578 151 32 26
-7.140151515151516 40.871212121212125 -27.575757575757578 16 13 20
18.71212121212121 41.11742424242424 -23.143939393939394 37 36 52
10.587121212121213 -45.54924242424242 -28.31439393939394 170 92 46
1.231060606060606 29.053030303030305 -27.575757575757578 151 32 26
50.96590909090909 -45.303030303030305 -38.65530303030303 23 23 13
18.71212121212121 40.871212121212125 -23.143939393939394 36 35 51
10.833333333333334 -45.54924242424242 -28.560606060606062 158 80 18
-7.140151515151516 40.625 -27.575757575757578 15 14 20
1.231060606060606 28.806818181818183 -27.575757575757578 151 32 26
50.96590909090909 -45.54924242424242 -38.65530303030303 20 20 10
18.958333333333332 40.625 -23.390151515151516 34 33 47
10.833333333333334 -45.54924242424242 -28.560606060606062 162 84 10
1.231060606060606 28.806818181818183 -27.575757575757578 151 32 26
-7.140151515151516 40.37878787878788 -27.575757575757578 23 21 26
51.21212121212121 -45.54924242424242 -38.90151515151515 29 29 19
18.958333333333332 40.37878787878788 -23.390151515151516 33 32 46
16.988636363636363 -45.05681818181818 -35.45454545454545 216 154 81
1.231060606060606 28.560606060606062 -27.575757575757578 151 32 26
18.958333333333332 40.37878787878788 -23.390151515151516 32 31 45
-7.140151515151516 40.13257575757576 -27.575757575757578 28 26 31
51.21212121212121 -45.79545454545455 -38.90151515151515 39 39 29
1.231060606060606 28.31439393939394 -27.575757575757578 151 30 22
16.742424242424242 -45.303030303030305 -35.208333333333336 134 78 17
19.204545454545453 40.13257575757576 -23.636363636363637 30 29 45
-7.140151515151516 40.13257575757576 -27.575757575757578 27 25 30
50.96590909090909 -46.041666666666664 -38.65530303030303 33 31 19
-2.462121212121212 -3.4469696969696972 -13.049242424242424 18 14 13
1.231060606060606 28.06818181818182 -27.8219696969697 151 30 21
19.204545454545453 39.88636363636364 -23.636363636363637 27 29 44
-7.140151515151516 39.88636363636364 -27.575757575757578 19 17 22
21.666666666666668 62.04545454545455 3.6931818181818183 196 45 36
1.231060606060606 27.8219696969697 -27.575757575757578 151 30 22
-2.7083333333333335 -3.6931818181818183 -12.803030303030303 19 14 11
19.204545454545453 39.640151515151516 -23.636363636363637 26 28 43
21.666666666666668 61.79924242424242 3.6931818181818183 187 34 29
-7.140151515151516 39.640151515151516 -27.575757575757578 13 11 16
1.231060606060606 27.8219696969697 -27.575757575757578 151 30 22
-3.2007575757575757 -4.1856060606060606 -12.556818181818182 22 13 14
19.204545454545453 39.640151515151516 -23.636363636363637 28 26 40
21.666666666666668 61.553030303030305 3.6931818181818183 177 30 23
1.231060606060606 27.575757575757578 -27.575757575757578 152 31 23
-7.140151515151516 39.39393939393939 -27.575757575757578 13 11 16
-3.4469696969696972 -4.431818181818182 -12.31060606060606 21 12 13
19.204545454545453 39.39393939393939 -23.636363636363637 28 24 38
21.666666666666668 61.553030303030305 3.6931818181818183 171 28 24
1.231060606060606 27.329545454545453 -27.575757575757578 153 32 24
-3.6931818181818183 -4.678030303030303 -11.818181818181818 21 12 15
-7.140151515151516 39.14772727272727 -27.575757575757578 15 13 18
18.958333333333332 39.14772727272727 -23.390151515151516 33 21 33
21.174242424242426 61.553030303030305 3.4469696969696972 169 23 23
1.231060606060606 27.083333333333332 -27.575757575757578 154 33 25
-4.1856060606060606 -5.170454545454546 -11.325757575757576 21 10 14
18.958333333333332 38.90151515151515 -23.390151515151516 32 20 30
21.174242424242426 61.30681818181818 3.4469696969696972 170 21 25
-7.140151515151516 39.14772727272727 -27.575757575757578 15 13 18
1.231060606060606 27.083333333333332 -27.8219696969697 161 40 32
-4.678030303030303 -5.416666666666667 -10.833333333333334 25 10 13
18.958333333333332 38.65530303030303 -23.390151515151516 28 22 32
21.174242424242426 61.06060606060606 3.4469696969696972 167 21 24
1.4772727272727273 26.83712121212121 -27.8219696969697 161 38 30
-5.170454545454546 -5.909090909090909 -10.09469696969697 25 10 13
-7.140151515151516 38.90151515151515 -27.575757575757578 14 12 17
19.204545454545453 38.65530303030303 -23.882575757575758 24 24 36
21.174242424242426 60.81439393939394 3.4469696969696972 164 21 23
1.4772727272727273 26.59090909090909 -27.8219696969697 162 39 31
-5.662878787878788 -6.401515151515151 -9.602272727272727 22 12 11
-7.140151515151516 38.65530303030303 -27.575757575757578 15 13 18
19.204545454545453 38.40909090909091 -23.636363636363637 22 26 35
21.174242424242426 60.56818181818182 3.6931818181818183 161 23 21
1.7234848484848486 26.59090909090909 -28.31439393939394 164 41 33
-6.6477272727272725 -6.8939393939393945 -8.617424242424242 24 14 12
19.204545454545453 38.16287878787879 -23.636363636363637 21 25 34
-7.140151515151516 38.40909090909091 -27.575757575757578 16 14 19
1.7234848484848486 26.34469696969697 -28.06818181818182 164 41 33
-8.125 -7.632575757575758 -6.8939393939393945 20 7 1
21.174242424242426 60.321969696969695 3.6931818181818183 158 24 21
18.958333333333332 37.916666666666664 -23.390151515151516 15 22 32
1.7234848484848486 26.098484848484848 -28.06818181818182 164 41 33
-8.617424242424242 -8.125 -6.15530303030303 46 17 13
-7.140151515151516 38.40909090909091 -27.575757575757578 16 14 19
18.958333333333332 37.67045454545455 -23.390151515151516 24 21 30
20.928030303030305 60.07575757575758 3.9393939393939394 156 24 22
1.9696969696969697 26.098484848484848 -28.560606060606062 166 43 36
-8.371212121212121 -8.125 -6.401515151515151 65 21 20
-7.140151515151516 38.16287878787879 -27.575757575757578 15 13 18
20.928030303030305 59.82954545454545 3.9393939393939394 153 23 21
18.958333333333332 37.67045454545455 -23.390151515151516 35 15 24
-8.371212121212121 -8.371212121212121 -6.401515151515151 82 24 23
21.174242424242426 59.583333333333336 3.6931818181818183 150 25 23
18.958333333333332 37.42424242424242 -23.390151515151516 46 10 20
-8.371212121212121 -8.617424242424242 -6.401515151515151 90 19 23
-7.386363636363637 37.916666666666664 -27.329545454545453 14 12 17
20.928030303030305 59.583333333333336 3.9393939393939394 150 25 23
19.204545454545453 37.178030303030305 -23.636363636363637 51 16 23
-8.371212121212121 -8.863636363636363 -6.401515151515151 93 18 22
-7.386363636363637 37.67045454545455 -27.329545454545453 15 13 18
1.9696969696969697 25.852272727272727 -28.560606060606062 165 42 35
20.928030303030305 59.33712121212121 3.9393939393939394 149 23 24
19.204545454545453 36.93181818181818 -23.636363636363637 85 30 36
-9.109848484848484 -9.356060606060606 -5.662878787878788 80 10 10
1.9696969696969697 25.606060606060606 -28.560606060606062 165 42 35
-7.386363636363637 37.42424242424242 -27.329545454545453 18 13 19
20.928030303030305 59.09090909090909 3.9393939393939394 148 22 23
18.958333333333332 36.93181818181818 -23.390151515151516 120 30 29
-9.356060606060606 -9.602272727272727 -5.416666666666667 76 6 6
2.215909090909091 25.606060606060606 -28.560606060606062 164 41 34
20.681818181818183 58.84469696969697 4.1856060606060606 150 22 23
-7.386363636363637 37.42424242424242 -27.329545454545453 29 22 30
-9.356060606060606 -9.848484848484848 -5.416666666666667 83 11 12
2.215909090909091 25.359848484848484 -28.560606060606062 164 41 34
18.958333333333332 36.68560606060606 -23.390151515151516 130 28 23
20.681818181818183 58.59848484848485 4.1856060606060606 150 22 23
-9.109848484848484 -10.340909090909092 -5.662878787878788 87 18 21
2.215909090909091 25.113636363636363 -28.560606060606062 162 39 32
-7.140151515151516 37.178030303030305 -27.575757575757578 28 21 28
20.681818181818183 58.35227272727273 4.1856060606060606 150 21 25
18.958333333333332 36.43939393939394 -23.390151515151516 134 29 23
-9.602272727272727 -22.15909090909091 -4.924242424242424 88 22 24
1.9696969696969697 24.867424242424242 -28.560606060606062 162 39 32
20.435606060606062 58.10606060606061 4.431818181818182 150 21 25
18.958333333333332 36.19318181818182 -23.390151515151516 137 28 23
-7.140151515151516 36.93181818181818 -27.575757575757578 15 13 18
-9.602272727272727 -22.15909090909091 -5.170454545454546 71 27 26
1.9696969696969697 24.62121212121212 -28.560606060606062 161 38 31
20.681818181818183 57.859848484848484 4.1856060606060606 150 22 23
18.958333333333332 35.946969696969695 -23.390151515151516 140 27 21
-7.140151515151516 36.68560606060606 -27.575757575757578 7 7 9
1.9696969696969697 24.62121212121212 -28.560606060606062 159 36 29
-9.602272727272727 -22.40530303030303 -5.170454545454546 76 31 28
20.681818181818183 57.61363636363637 4.1856060606060606 150 22 23
18.958333333333332 35.946969696969695 -23.390151515151516 143 25 21
1.9696969696969697 24.375 -28.560606060606062 158 35 30
-9.602272727272727 -22.897727272727273 -4.924242424242424 105 30 34
-7.386363636363637 36.68560606060606 -27.329545454545453 13 9 10
20.435606060606062 57.36742424242424 4.431818181818182 147 21 22
19.204545454545453 35.70075757575758 -23.636363636363637 146 27 21
2.215909090909091 24.12878787878788 -28.560606060606062 155 32 27
-9.602272727272727 -22.897727272727273 -5.170454545454546 99 33 35
20.435606060606062 57.36742424242424 4.431818181818182 147 21 22
18.958333333333332 35.45454545454545 -23.390151515151516 148 26 23
-7.632575757575758 36.43939393939394 -27.083333333333332 16 10 12
2.215909090909091 24.12878787878788 -28.560606060606062 154 31 26
-9.602272727272727 -23.143939393939394 -5.170454545454546 103 31 35
20.435606060606062 57.121212121212125 4.678030303030303 147 21 22
18.958333333333332 35.208333333333336 -23.390151515151516 147 25 22
-7.878787878787879 36.19318181818182 -26.83712121212121 18 7 11
2.462121212121212 23.882575757575758 -28.806818181818183 152 29 24
-9.356060606060606 -23.143939393939394 -5.416666666666667 99 49 50
20.435606060606062 56.875 4.678030303030303 146 20 21
18.958333333333332 35.208333333333336 -23.390151515151516 147 25 22
2.462121212121212 23.636363636363637 -28.806818181818183 152 29 24
-7.878787878787879 35.946969696969695 -26.83712121212121 20 8 12
-9.602272727272727 -23.636363636363637 -5.170454545454546 104 29 34
18.958333333333332 34.96212121212121 -23.390151515151516 147 25 22
20.435606060606062 56.62878787878788 4.678030303030303 146 20 21
2.462121212121212 23.390151515151516 -28.806818181818183 151 28 23
-9.356060606060606 -27.8219696969697 -5.416666666666667 114 22 23
-7.878787878787879 35.70075757575758 -26.83712121212121 22 10 14
20.435606060606062 56.38257575757576 4.678030303030303 146 20 21
18.958333333333332 34.71590909090909 -23.390151515151516 147 25 22
2.462121212121212 23.390151515151516 -28.806818181818183 151 27 25
-9.356060606060606 -28.06818181818182 -5.416666666666667 120 26 27
20.18939393939394 56.13636363636364 4.924242424242424 146 20 21
18.958333333333332 34.46969696969697 -23.390151515151516 145 26 22
-7.878787878787879 35.45454545454545 -26.83712121212121 18 8 9
2.462121212121212 23.143939393939394 -28.806818181818183 150 26 24
-9.109848484848484 -28.06818181818182 -5.662878787878788 116 26 28
19.94318181818182 55.39772727272727 5.170454545454546 148 19 23
18.958333333333332 34.22348484848485 -23.390151515151516 145 26 22
2.462121212121212 22.897727272727273 -28.806818181818183 150 26 24
-9.109848484848484 -28.31439393939394 -5.662878787878788 117 25 26
-7.878787878787879 35.45454545454545 -26.83712121212121 13 2 0
19.696969696969695 55.151515151515156 5.662878787878788 149 20 24
18.958333333333332 34.22348484848485 -23.390151515151516 145 26 22
2.462121212121212 22.651515151515152 -28.806818181818183 150 26 24
-9.109848484848484 -30.776515151515152 -5.662878787878788 113 23 22
-8.125 35.208333333333336 -26.59090909090909 16 0 0
19.696969696969695 54.90530303030303 5.662878787878788 150 19 24
18.71212121212121 33.97727272727273 -23.143939393939394 144 26 22
2.462121212121212 22.651515151515152 -28.806818181818183 148 26 25
-9.109848484848484 -31.022727272727273 -5.662878787878788 113 25 23
19.696969696969695 54.90530303030303 5.662878787878788 150 19 24
-8.125 34.96212121212121 -26.59090909090909 38 1 0
18.71212121212121 33.73106060606061 -23.143939393939394 146 27 23
2.462121212121212 22.40530303030303 -28.806818181818183 147 25 24
-9.109848484848484 -31.022727272727273 -5.662878787878788 114 24 23
19.696969696969695 54.65909090909091 5.662878787878788 150 19 24
18.71212121212121 33.484848484848484 -23.143939393939394 146 27 23
-7.140151515151516 34.22348484848485 -27.575757575757578 151 34 27
-9.109848484848484 -31.268939393939394 -5.662878787878788 113 23 22
2.462121212121212 22.15909090909091 -28.806818181818183 147 25 24
19.696969696969695 54.41287878787879 5.909090909090909 154 21 24
18.71212121212121 33.23863636363637 -23.143939393939394 146 27 23
-6.6477272727272725 33.97727272727273 -28.06818181818182 154 35 29
2.462121212121212 21.91287878787879 -28.806818181818183 147 25 24
-9.109848484848484 -31.515151515151516 -5.662878787878788 112 22 21
19.450757575757574 54.166666666666664 6.15530303030303 154 21 24
18.71212121212121 32.99242424242424 -23.143939393939394 146 27 23
2.462121212121212 21.91287878787879 -28.806818181818183 147 25 24
-6.6477272727272725 33.73106060606061 -28.06818181818182 157 36 28
-9.109848484848484 -31.761363636363637 -5.662878787878788 112 22 21
19.696969696969695 53.92045454545455 5.909090909090909 154 21 24
18.71212121212121 32.99242424242424 -23.143939393939394 146 27 23
2.462121212121212 21.666666666666668 -28.806818181818183 147 25 24
-9.109848484848484 -32.00757575757576 -5.662878787878788 114 23 22
-6.401515151515151 33.23863636363637 -28.560606060606062 159 36 28
19.450757575757574 53.67424242424242 6.15530303030303 153 20 23
18.71212121212121 32.746212121212125 -23.143939393939394 146 27 23
2.462121212121212 21.420454545454547 -28.806818181818183 147 25 24
-9.109848484848484 -32.25378787878788 -5.662878787878788 114 24 23
19.204545454545453 53.18181818181818 6.401515151515151 155 20 24
18.71212121212121 32.5 -23.143939393939394 145 26 22
-6.15530303030303 33.23863636363637 -28.560606060606062 159 38 29
2.462121212121212 21.174242424242426 -28.806818181818183 147 25 24
-9.109848484848484 -32.5 -5.662878787878788 114 23 20
19.204545454545453 52.93560606060606 6.401515151515151 158 22 26
18.46590909090909 32.25378787878788 -22.897727272727273 145 26 22
2.462121212121212 21.174242424242426 -28.806818181818183 144 24 23
-9.109848484848484 -32.5 -5.662878787878788 113 24 20
-6.15530303030303 32.99242424242424 -28.560606060606062 162 40 29
19.450757575757574 52.68939393939394 6.15530303030303 159 23 27
18.46590909090909 32.00757575757576 -22.897727272727273 145 26 22
2.462121212121212 20.928030303030305 -28.806818181818183 144 24 23
-9.109848484848484 -32.746212121212125 -5.662878787878788 112 22 22
-6.401515151515151 32.746212121212125 -28.560606060606062 164 40 30
19.204545454545453 52.44318181818182 6.401515151515151 159 20 25
18.46590909090909 32.00757575757576 -22.897727272727273 145 26 22
-9.109848484848484 -32.99242424242424 -5.662878787878788 112 22 22
2.462121212121212 20.681818181818183 -28.806818181818183 144 24 23
19.204545454545453 52.44318181818182 6.401515151515151 159 20 25
18.46590909090909 31.761363636363637 -22.897727272727273 145 26 22
-6.401515151515151 32.5 -28.560606060606062 164 40 32
2.462121212121212 20.435606060606062 -28.806818181818183 144 24 23
-8.863636363636363 -33.23863636363637 -5.909090909090909 114 22 27
19.204545454545453 52.196969696969695 6.401515151515151 159 20 25
18.21969696969697 31.515151515151516 -22.651515151515152 145 26 22
2.462121212121212 20.435606060606062 -28.806818181818183 143 23 22
