ply
format ascii 1.0
comment Java E3D tool
element vertex 716
property double x
property double y
property double z
property uint8 red
property uint8 green
property uint8 blue
end_header
-18.521766662597656 11.818181818181818 -24.05570868289832 129 24 21
-35.82195513176195 23.390151515151516 -20.681818181818183 146 24 21
-30.42296091715495 29.791666666666668 -26.093751155968867 137 24 20
-18.521766662597656 11.571969696969697 -24.05570868289832 129 24 21
-35.82195513176195 23.143939393939394 -20.681818181818183 146 24 21
-30.42296091715495 29.791666666666668 -26.093751155968867 139 24 21
-50.40087150804924 16.742424242424242 -11.187977068351977 15 0 0
-35.82195513176195 23.143939393939394 -20.681818181818183 146 24 21
-30.42296091715495 29.545454545454547 -26.093751155968867 139 24 21
-18.521766662597656 11.571969696969697 -24.05570868289832 128 22 22
-9.950912937973484 48.996212121212125 -21.666035507664535 162 76 79
-50.523977568655305 16.49621212121212 -10.974750518798828 34 0 0
-18.521766662597656 11.325757575757576 -24.05570868289832 127 21 21
-30.42296091715495 29.299242424242426 -26.093751155968867 139 24 21
-35.608728582208805 22.897727272727273 -20.55871212121212 146 24 21
-9.950912937973484 48.75 -21.666035507664535 176 120 121
-18.43164617365057 11.079545454545455 -23.71937607273911 126 22 21
-43.826854590213664 -45.79545454545455 28.14518321644176 112 77 35
-10.041033426920572 48.50378787878788 -22.0023606040261 198 169 163
-35.608728582208805 22.651515151515152 -20.55871212121212 146 24 21
-18.34152568470348 10.833333333333334 -23.383043462579902 125 21 20
-11.729158343690814 46.28787878787879 -26.957221753669508 193 57 43
-35.51860809326172 22.40530303030303 -20.222379511052914 146 24 21
-18.128299135150332 10.587121212121213 -23.25993740197384 124 20 19
-30.2097343676018 29.053030303030305 -25.97064509536281 139 24 21
-35.64171415386778 22.15909090909091 -20.009152961499762 146 24 21
-11.729158343690814 46.041666666666664 -26.957221753669508 196 58 48
-18.038178646203242 10.340909090909092 -22.923604791814633 123 19 18
-35.51860809326172 22.15909090909091 -20.222379511052914 146 24 21
-11.729158343690814 45.79545454545455 -26.957221753669508 194 57 47
-30.2097343676018 29.053030303030305 -25.97064509536281 140 25 22
-18.161284706809305 10.09469696969697 -22.71037824226148 122 19 20
-35.64171415386778 21.91287878787879 -20.009152961499762 146 24 21
-11.729158343690814 45.79545454545455 -26.957221753669508 192 55 45
-30.2097343676018 28.806818181818183 -25.97064509536281 140 25 22
-35.64171415386778 21.666666666666668 -20.009152961499762 146 24 21
-11.819278832637902 45.54924242424242 -27.29355436382872 187 53 42
9.442078561493846 -37.916666666666664 -28.664762323552914 35 34 30
-11.819278832637902 45.303030303030305 -27.29355436382872 185 51 40
-30.2097343676018 28.560606060606062 -25.97064509536281 142 24 22
-35.64171415386778 21.666666666666668 -20.009152961499762 146 24 21
-11.819278832637902 45.05681818181818 -27.29355436382872 183 49 38
-30.2097343676018 28.560606060606062 -25.97064509536281 142 24 22
-35.42848760431463 21.420454545454547 -19.886046900893703 146 24 21
9.351958072546756 -37.916666666666664 -29.00109493371212 29 26 21
-30.2097343676018 28.31439393939394 -25.97064509536281 142 24 22
-35.42848760431463 21.174242424242426 -19.886046900893703 146 24 21
-11.729158343690814 45.05681818181818 -26.957221753669508 182 45 37
-30.11962890625 28.06818181818182 -25.634312485203598 141 23 21
-35.42848760431463 20.928030303030305 -19.886046900893703 145 23 20
-11.729158343690814 44.81060606060606 -26.957221753669508 181 44 36
8.958490545099432 -38.16287878787879 -29.7968662146366 40 30 28
-35.33836711536755 20.681818181818183 -19.549714290734492 146 24 21
-11.729158343690814 44.56439393939394 -26.957221753669508 181 42 37
-35.33836711536755 20.681818181818183 -19.549714290734492 146 24 21
-11.729158343690814 44.31818181818182 -26.957221753669508 170 31 26
8.958490545099432 -38.40909090909091 -29.7968662146366 39 27 29
-35.4614731759736 20.435606060606062 -19.336487741181344 146 24 21
-11.729158343690814 44.071969696969695 -26.957221753669508 174 34 33
-35.4614731759736 20.18939393939394 -19.336487741181344 146 24 21
-11.729158343690814 44.071969696969695 -26.957221753669508 169 31 29
-1.3140730424360796 -35.45454545454545 -20.37546562426018 38 34 31
-11.852264404296875 43.82575757575758 -26.74399520411636 162 28 27
-35.24824662642045 19.94318181818182 -19.213381680575285 146 24 21
8.745263995546283 -38.40909090909091 -29.91997227524266 36 27 30
-11.852264404296875 43.57954545454545 -26.74399520411636 161 31 29
-1.7075405698834043 -35.45454545454545 -21.17123690518466 41 37 36
-11.639037854743727 43.333333333333336 -26.620889143510297 160 35 31
8.655143506599195 -38.90151515151515 -30.25630488540187 36 28 25
-35.15812613747337 19.696969696969695 -18.877049070416074 146 24 21
-6.002682772549716 30.28409090909091 -30.474265127471 137 25 23
-11.852264404296875 43.08712121212121 -26.74399520411636 152 50 48
-35.15812613747337 19.696969696969695 -18.877049070416074 146 24 21
8.565023017652107 -38.90151515151515 -30.59263749556108 39 29 27
-6.002682772549716 30.03787878787879 -30.474265127471 137 25 23
-35.15812613747337 19.450757575757574 -18.877049070416074 146 24 21
-11.852264404296875 43.08712121212121 -26.74399520411636 63 7 6
-6.002682772549716 29.791666666666668 -30.474265127471 138 24 23
-21.58412008574515 -33.23863636363637 -15.304606466582328 39 38 36
-6.002682772549716 29.545454545454547 -30.474265127471 138 24 23
-11.278555898955375 42.59469696969697 -25.275566216671105 64 0 1
-6.092788233901516 29.545454545454547 -30.810597737630207 138 24 23
-21.58412008574515 -33.484848484848484 -15.304606466582328 38 37 35
-6.092788233901516 29.299242424242426 -30.810597737630207 138 24 23
-21.58412008574515 -33.73106060606061 -15.304606466582328 38 37 35
-6.092788233901516 29.053030303030305 -30.810597737630207 138 24 23
-21.674240574692234 -33.73106060606061 -15.640939076741537 35 34 32
-21.674240574692234 -33.97727272727273 -15.640939076741537 36 35 33
-6.092788233901516 28.806818181818183 -30.810597737630207 138 24 23
-11.368676387902463 42.59469696969697 -25.611898826830316 33 0 0
-21.674240574692234 -34.22348484848485 -15.640939076741537 35 34 32
-6.092788233901516 28.560606060606062 -30.810597737630207 139 25 24
-11.368676387902463 42.34848484848485 -25.611898826830316 36 4 5
-21.551134514086176 -34.22348484848485 -15.854165626294686 34 33 31
8.351796468098959 -38.90151515151515 -30.71574355616714 41 31 30
-21.551134514086176 -34.46969696969697 -15.854165626294686 34 33 31
-11.278555898955375 42.10227272727273 -25.275566216671105 22 6 6
-11.188435410008287 41.85606060606061 -24.9392336065119 18 7 11
8.26169100674716 -39.14772727272727 -31.05207616632635 38 29 30
-11.188435410008287 41.609848484848484 -24.9392336065119 24 11 20
-21.551134514086176 -34.71590909090909 -15.854165626294686 34 33 31
-21.551134514086176 -34.96212121212121 -15.854165626294686 36 35 33
8.04846445719401 -39.14772727272727 -31.17518222693241 34 30 29
-21.551134514086176 -34.96212121212121 -15.854165626294686 37 36 34
-35.28123219807943 19.204545454545453 -18.663822520862926 146 24 23
-10.975208860455137 41.36363636363637 -24.816127545905836 22 9 19
-21.641239975437973 -35.208333333333336 -16.190498236453895 34 33 31
8.04846445719401 -39.39393939393939 -31.17518222693241 32 31 29
-21.641239975437973 -35.45454545454545 -16.190498236453895 32 30 31
-35.06800564852628 18.958333333333332 -18.540716460256867 146 24 23
7.958343968246923 -39.39393939393939 -31.51151483709162 30 31 26
-21.641239975437973 -35.45454545454545 -16.190498236453895 36 34 35
-35.06800564852628 18.958333333333332 -18.540716460256867 144 24 23
-10.885088371508049 41.36363636363637 -24.479794935746625 20 10 19
-21.94458701393821 -35.45454545454545 -16.649936907219164 48 47 45
-34.97788515957919 18.71212121212121 -18.2043913638953 143 25 23
-10.885088371508049 41.11742424242424 -24.479794935746625 17 12 19
7.868223479299834 -39.640151515151516 -31.847847447250828 39 36 31
-21.94458701393821 -35.70075757575758 -16.649936907219164 51 50 48
-11.188435410008287 40.871212121212125 -24.9392336065119 27 20 27
-34.8877646706321 18.46590909090909 -17.86805875373609 140 24 24
-22.124827991832387 -35.70075757575758 -17.322602127537582 35 35 33
7.564876440799598 -39.640151515151516 -32.3072861180161 62 36 19
-34.8877646706321 18.21969696969697 -17.86805875373609 137 25 23
-10.975208860455137 40.625 -24.816127545905836 42 35 42
-22.305068969726562 -35.45454545454545 -17.995267347856 24 23 21
-34.8877646706321 17.973484848484848 -17.86805875373609 133 24 21
-11.188435410008287 40.625 -24.9392336065119 39 26 35
7.868223479299834 -45.54924242424242 -31.847847447250828 141 73 24
-31.889669244939633 -35.70075757575758 -5.333654230291193 48 50 63
-31.709428267045453 -35.946969696969695 -4.660989009972774 39 41 53
-10.975208860455137 40.37878787878788 -24.816127545905836 25 12 21
-22.395189458673652 -35.70075757575758 -18.331592444217566 26 25 23
-31.799548755992543 -36.19318181818182 -4.997321620131984 29 31 43
-30.11962890625 27.8219696969697 -25.634312485203598 141 23 21
-31.799548755992543 -36.43939393939394 -4.997321620131984 31 35 46
-10.975208860455137 40.13257575757576 -24.816127545905836 19 9 18
7.564876440799598 -45.54924242424242 -32.3072861180161 146 71 16
-31.799548755992543 -36.43939393939394 -4.997321620131984 36 40 51
-30.11962890625 27.8219696969697 -25.634312485203598 141 23 21
7.261529402299361 -45.54924242424242 -32.76672478878137 147 72 17
-10.885088371508049 39.88636363636364 -24.479794935746625 20 10 19
-30.11962890625 27.575757575757578 -25.634312485203598 142 23 19
-10.885088371508049 39.640151515151516 -24.479794935746625 26 13 23
-30.11962890625 27.329545454545453 -25.634312485203598 142 23 19
-30.11962890625 27.083333333333332 -25.634312485203598 142 23 19
-10.885088371508049 39.640151515151516 -24.479794935746625 29 16 26
-17.857952695904356 9.848484848484848 -22.250947085293856 121 18 19
-30.242734966856062 27.083333333333332 -25.42108593565045 143 24 20
-10.885088371508049 39.39393939393939 -24.479794935746625 29 17 27
-30.242734966856062 26.83712121212121 -25.42108593565045 143 24 20
-30.242734966856062 26.59090909090909 -25.42108593565045 143 24 20
-10.885088371508049 39.14772727272727 -24.479794935746625 36 26 34
-30.242734966856062 26.34469696969697 -25.42108593565045 143 24 20
-10.885088371508049 38.90151515151515 -24.479794935746625 51 41 49
-17.76783220695727 9.602272727272727 -21.91461447513465 122 19 20
-30.242734966856062 26.34469696969697 -25.42108593565045 143 24 20
-10.885088371508049 38.65530303030303 -24.479794935746625 51 41 49
-17.67771171801018 9.356060606060606 -21.578281864975438 121 19 17
-30.029508417302914 26.098484848484848 -25.29797987504439 143 24 20
-10.885088371508049 38.65530303030303 -24.479794935746625 32 23 28
-17.76783220695727 9.109848484848484 -21.91461447513465 121 19 17
-30.029508417302914 25.852272727272727 -25.29797987504439 143 24 20
-10.975208860455137 38.40909090909091 -24.816127545905836 17 4 11
-17.67771171801018 8.863636363636363 -21.578281864975438 122 20 18
-30.029508417302914 25.606060606060606 -25.29797987504439 143 24 20
-10.885088371508049 38.16287878787879 -24.479794935746625 20 8 12
-17.374364679509945 8.617424242424242 -21.118843194210168 122 20 18
-30.029508417302914 25.606060606060606 -25.29797987504439 143 24 20
-10.794967882560961 37.916666666666664 -24.143462325587418 23 12 16
-17.374364679509945 8.371212121212121 -21.118843194210168 122 20 18
-29.939387928355824 25.359848484848484 -24.96164726488518 142 24 20
-10.794967882560961 37.67045454545455 -24.143462325587418 25 10 13
-17.407350251168914 8.125 -20.56928403449781 122 20 18
-29.939387928355824 25.113636363636363 -24.96164726488518 142 24 20
-10.704847393613873 37.42424242424242 -23.807129715428207 25 7 3
-17.284244190562855 7.878787878787879 -20.78251058405096 122 20 18
-29.939387928355824 24.867424242424242 -24.96164726488518 142 24 20
-10.794967882560961 37.42424242424242 -24.143462325587418 27 1 2
-17.407350251168914 7.632575757575758 -20.56928403449781 122 20 18
-29.939387928355824 24.867424242424242 -24.96164726488518 142 24 20
-10.794967882560961 37.178030303030305 -24.143462325587418 25 0 0
-17.317229762221828 7.386363636363637 -20.2329514243386 122 20 18
7.1714089133522725 -45.54924242424242 -33.10305739894058 147 76 20
-10.794967882560961 36.93181818181818 -24.143462325587418 45 0 3
-30.062493988961887 24.62121212121212 -24.74842071533203 143 25 21
-17.10400321266868 7.140151515151516 -20.10984536373254 122 20 18
-10.794967882560961 36.68560606060606 -24.143462325587418 55 5 6
6.868061874852036 -45.54924242424242 -33.56249606970585 147 78 23
-30.062493988961887 24.375 -24.74842071533203 143 25 21
-16.923762234774504 6.8939393939393945 -19.43718014341412 121 19 17
6.474594347404711 -45.303030303030305 -34.35825983683268 147 76 20
-11.45879687684955 35.70075757575758 -25.94822392319188 174 54 40
-30.062493988961887 24.12878787878788 -24.74842071533203 143 25 21
6.384473858457623 -45.54924242424242 -34.69459244699189 148 77 21
-16.923762234774504 6.6477272727272725 -19.43718014341412 121 19 17
-11.548917365796639 35.45454545454545 -26.28455653335109 169 45 33
6.081126819957387 -45.303030303030305 -35.154031117757164 148 78 19
-16.923762234774504 6.401515151515151 -19.43718014341412 121 19 17
-30.062493988961887 24.12878787878788 -24.74842071533203 143 25 21
5.991006331010299 -45.303030303030305 -35.490363727916375 149 79 20
-16.743521256880328 6.15530303030303 -18.764514923095703 118 18 18
5.90088584206321 -45.54924242424242 -35.82669633807558 148 78 19
-16.743521256880328 5.909090909090909 -18.764514923095703 116 20 21
-29.75914695046165 23.882575757575758 -24.28898204456676 142 24 20
5.507418314615886 -45.303030303030305 -36.62246761900006 151 81 22
-16.44017421838009 5.662878787878788 -18.305083766128078 112 23 27
4.720498287316524 -45.05681818181818 -38.214002667051375 152 81 25
-16.44017421838009 5.416666666666667 -18.305083766128078 95 24 28
-29.75914695046165 23.636363636363637 -24.28898204456676 142 24 20
4.507271737763376 -45.303030303030305 -38.33710872765744 151 82 23
-15.538969328909209 4.431818181818182 -14.941757664535984 26 10 10
4.236910270922111 -45.05681818181818 -39.34610655813506 155 84 22
-15.538969328909209 4.1856060606060606 -14.941757664535984 23 13 14
-29.849267439408735 23.390151515151516 -24.625314654725972 143 25 21
3.933563232421875 -45.05681818181818 -39.805545228900336 153 88 34
-15.32574277935606 3.9393939393939394 -14.818651603929924 25 13 17
-7.107631798946496 -45.303030303030305 -63.522561969179094 23 24 18
-15.145516829057174 3.6931818181818183 -14.145986383611506 25 10 15
-29.849267439408735 23.390151515151516 -24.625314654725972 143 25 21
-7.107631798946496 -45.303030303030305 -63.522561969179094 28 28 18
-15.055396340110086 3.4469696969696972 -13.809661287249941 27 12 15
-7.107631798946496 -45.54924242424242 -63.522561969179094 32 30 18
-14.842169790556937 3.2007575757575757 -13.68655522664388 21 11 12
-29.75914695046165 23.143939393939394 -24.28898204456676 142 24 20
-7.197752287893584 -45.79545454545455 -63.858887065540664 30 27 12
-14.842169790556937 2.9545454545454546 -13.68655522664388 22 12 13
-14.965275851162998 2.7083333333333335 -13.473328677090732 22 11 15
-7.197752287893584 -45.79545454545455 -63.858887065540664 41 38 23
-29.75914695046165 22.897727272727273 -24.28898204456676 142 24 20
-15.055396340110086 2.7083333333333335 -13.809661287249941 23 15 13
-6.92739082105232 -52.44318181818182 -62.84989299196186 33 28 22
-14.965275851162998 2.462121212121212 -13.473328677090732 25 10 13
11.589642149029356 42.10227272727273 -24.013248212409742 166 43 35
-29.75914695046165 22.651515151515152 -24.28898204456676 142 24 20
-14.571808323715672 1.9696969696969697 -12.677557396166252 26 10 13
11.589642149029356 41.85606060606061 -24.013248212409742 165 41 31
-14.514673406427557 1.4772727272727273 -11.791665626294686 24 9 12
11.589642149029356 41.85606060606061 -24.013248212409742 167 39 30
-29.882253011067707 22.40530303030303 -24.075755495013613 142 24 20
11.499536687677557 41.609848484848484 -24.349580822568953 162 35 28
-14.514673406427557 1.4772727272727273 -11.791665626294686 23 13 12
11.499536687677557 41.36363636363637 -24.349580822568953 162 35 28
-14.514673406427557 1.231060606060606 -11.791665626294686 21 13 11
11.499536687677557 41.11742424242424 -24.349580822568953 164 35 29
-14.21132636792732 0.7386363636363636 -11.332226955529416 16 10 10
11.499536687677557 40.871212121212125 -24.349580822568953 162 33 28
-14.031085390033144 0.49242424242424243 -10.659561735210996 16 7 8
11.499536687677557 40.625 -24.349580822568953 160 32 29
-13.850844412138969 0.0 -9.986896514892578 20 5 10
11.499536687677557 40.37878787878788 -24.349580822568953 157 32 28
-29.882253011067707 22.40530303030303 -24.075755495013613 142 24 20
-13.76072392319188 -0.24621212121212122 -9.650571418531014 16 7 8
11.499536687677557 40.37878787878788 -24.349580822568953 156 31 27
-13.76072392319188 -0.24621212121212122 -9.650571418531014 14 8 8
11.499536687677557 40.13257575757576 -24.349580822568953 155 31 29
-29.882253011067707 22.15909090909091 -24.075755495013613 142 24 20
11.499536687677557 39.88636363636364 -24.349580822568953 154 30 28
-13.850844412138969 -0.49242424242424243 -9.986896514892578 13 9 6
-29.882253011067707 21.91287878787879 -24.075755495013613 142 24 20
11.499536687677557 39.640151515151516 -24.349580822568953 153 27 28
-13.850844412138969 -0.7386363636363636 -9.986896514892578 11 8 3
-29.66902646151456 21.666666666666668 -23.95264943440755 142 24 20
11.499536687677557 39.39393939393939 -24.349580822568953 151 25 26
-13.76072392319188 -0.9848484848484849 -9.650571418531014 18 0 0
-29.66902646151456 21.666666666666668 -23.95264943440755 143 23 22
-13.850844412138969 -0.9848484848484849 -9.986896514892578 20 0 0
11.409416198730469 39.14772727272727 -24.68591343272816 155 29 30
-14.87515536221591 -2.9545454545454546 -13.136996066931522 105 25 26
-29.66902646151456 21.420454545454547 -23.95264943440755 143 23 22
11.409416198730469 38.90151515151515 -24.68591343272816 151 23 24
-15.145516829057174 -3.6931818181818183 -14.145986383611506 121 25 27
-29.578905972567473 21.174242424242426 -23.616316824248344 143 23 22
11.409416198730469 38.90151515151515 -24.68591343272816 146 20 21
-15.235637318004262 -3.9393939393939394 -14.482318993770715 122 22 22
-29.578905972567473 20.928030303030305 -23.616316824248344 143 23 22
-15.32574277935606 -4.1856060606060606 -14.818651603929924 120 25 23
11.499536687677557 38.65530303030303 -24.349580822568953 142 17 21
-29.578905972567473 20.928030303030305 -23.616316824248344 142 24 22
11.499536687677557 38.40909090909091 -24.349580822568953 139 14 20
-15.32574277935606 -4.431818181818182 -14.818651603929924 123 23 21
-29.70201203317353 20.681818181818183 -23.403090274695195 143 25 23
-15.32574277935606 -4.678030303030303 -14.818651603929924 125 22 23
11.499536687677557 38.16287878787879 -24.349580822568953 138 17 22
-29.70201203317353 20.435606060606062 -23.403090274695195 141 26 23
-15.32574277935606 -4.678030303030303 -14.818651603929924 127 23 22
11.499536687677557 37.916666666666664 -24.349580822568953 142 21 26
-29.70201203317353 20.18939393939394 -23.403090274695195 141 26 23
-15.538969328909209 -4.924242424242424 -14.941757664535984 126 23 24
11.499536687677557 37.67045454545455 -24.349580822568953 141 26 29
-29.488785483620383 19.94318181818182 -23.279984214089133 140 24 24
11.499536687677557 37.42424242424242 -24.349580822568953 122 16 16
-15.629089817856297 -4.924242424242424 -15.278090274695195 123 23 23
-29.488785483620383 19.94318181818182 -23.279984214089133 139 23 23
-15.629089817856297 -5.170454545454546 -15.278090274695195 127 23 24
11.499536687677557 37.178030303030305 -24.349580822568953 107 5 3
-15.505983757250236 -5.416666666666667 -15.491316824248344 125 21 20
11.409416198730469 37.178030303030305 -24.68591343272816 107 5 3
-15.505983757250236 -5.416666666666667 -15.491316824248344 131 23 21
20.06565671978575 -9.356060606060606 -7.178975307580196 123 27 31
-29.398664994673297 19.696969696969695 -22.943651603929926 139 23 23
-15.505983757250236 -5.662878787878788 -15.491316824248344 132 22 21
19.8524301702326 -10.09469696969697 -7.302081368186257 132 28 29
-15.505983757250236 -5.909090909090909 -15.491316824248344 136 22 21
19.8524301702326 -10.340909090909092 -7.302081368186257 131 27 28
-15.596104246197324 -6.15530303030303 -15.827649434407553 136 22 21
-29.398664994673297 19.450757575757574 -22.943651603929926 139 23 23
19.549083131732363 -10.587121212121213 -7.761520038951527 122 22 22
-15.596104246197324 -6.15530303030303 -15.827649434407553 137 23 22
19.458962642785274 -10.833333333333334 -8.097845135313092 120 29 28
-15.809330795750475 -6.401515151515151 -15.950755495013613 137 23 22
19.458962642785274 -11.325757575757576 -8.097845135313092 127 24 25
-15.809330795750475 -6.6477272727272725 -15.950755495013613 138 25 21
19.458962642785274 -11.571969696969697 -8.097845135313092 127 23 24
-15.809330795750475 -6.6477272727272725 -15.950755495013613 139 24 21
-29.398664994673297 19.204545454545453 -22.943651603929926 139 23 23
-15.98957177364465 -6.8939393939393945 -16.62342071533203 135 23 22
18.819282994125828 -11.571969696969697 -8.467163317131273 130 21 24
-15.899451284697562 -7.140151515151516 -16.28708810517282 138 24 24
18.819282994125828 -12.06439393939394 -8.467163317131273 132 23 26
-29.521771055279356 18.958333333333332 -22.730425054376777 138 22 22
-15.899451284697562 -7.140151515151516 -16.28708810517282 139 25 25
18.819282994125828 -12.31060606060606 -8.467163317131273 131 25 27
-29.308544505726207 18.71212121212121 -22.607318993770715 137 21 21
-15.98957177364465 -7.386363636363637 -16.62342071533203 138 26 25
18.819282994125828 -12.556818181818182 -8.467163317131273 131 27 28
-15.98957177364465 -7.632575757575758 -16.62342071533203 140 26 26
18.819282994125828 -12.803030303030303 -8.467163317131273 128 28 28
-29.308544505726207 18.71212121212121 -22.607318993770715 134 20 19
-15.98957177364465 -7.878787878787879 -16.62342071533203 140 28 27
18.729162505178742 -12.803030303030303 -8.803495927290482 123 37 38
-29.21842401677912 18.46590909090909 -22.270986383611508 128 20 18
-15.98957177364465 -7.878787878787879 -16.62342071533203 141 27 27
18.729162505178742 -13.049242424242424 -8.803495927290482 119 41 39
-29.21842401677912 18.21969696969697 -22.270986383611508 126 21 18
-16.07969226259174 -8.125 -16.959753325491242 136 26 25
18.729162505178742 -13.295454545454545 -8.803495927290482 113 43 41
-16.07969226259174 -8.125 -16.959753325491242 138 26 25
18.729162505178742 -13.541666666666666 -8.803495927290482 106 45 40
-26.21147733746153 51.95075757575758 -11.72159194946289 178 45 30
18.999523972020004 -16.49621212121212 -7.7945056106105 62 13 6
-16.07969226259174 -8.371212121212121 -16.959753325491242 139 27 26
-26.21147733746153 51.70454545454545 -11.72159194946289 173 46 31
-16.07969226259174 -8.617424242424242 -16.959753325491242 140 26 26
18.999523972020004 -16.742424242424242 -7.7945056106105 53 9 0
-26.21147733746153 51.458333333333336 -11.72159194946289 168 45 29
-16.07969226259174 -8.863636363636363 -16.959753325491242 141 27 27
18.999523972020004 -16.742424242424242 -7.7945056106105 45 7 0
-26.21147733746153 51.458333333333336 -11.72159194946289 165 42 27
-16.07969226259174 -8.863636363636363 -16.959753325491242 142 28 28
19.089644460967094 -17.234848484848484 -7.45817300045129 62 15 7
-16.169812751538824 -9.109848484848484 -17.29608593565045 142 28 28
19.089644460967094 -17.481060606060606 -7.45817300045129 46 8 0
-26.21147733746153 51.21212121212121 -11.72159194946289 166 40 28
-16.259933240485914 -9.109848484848484 -17.63241854580966 142 26 29
19.089644460967094 -17.727272727272727 -7.45817300045129 41 8 0
-26.08837127685547 50.96590909090909 -11.934818499016039 165 37 28
-16.259933240485914 -9.356060606060606 -17.63241854580966 144 25 29
19.089644460967094 -17.973484848484848 -7.45817300045129 36 9 0
-26.08837127685547 50.71969696969697 -11.934818499016039 162 34 25
18.999523972020004 -17.973484848484848 -7.7945056106105 33 16 6
-16.259933240485914 -9.602272727272727 -17.63241854580966 149 24 30
-26.08837127685547 50.71969696969697 -11.934818499016039 161 27 24
-16.259933240485914 -9.848484848484848 -17.63241854580966 147 24 29
19.089644460967094 -18.21969696969697 -7.45817300045129 30 13 3
-26.08837127685547 50.47348484848485 -11.934818499016039 159 24 21
-16.259933240485914 -10.09469696969697 -17.63241854580966 140 26 26
19.089644460967094 -18.46590909090909 -7.45817300045129 29 15 6
-16.259933240485914 -10.09469696969697 -17.63241854580966 137 29 27
19.089644460967094 -18.71212121212121 -7.45817300045129 29 16 7
-26.21147733746153 50.22727272727273 -11.72159194946289 160 20 21
-16.259933240485914 -10.340909090909092 -17.63241854580966 137 29 26
19.089644460967094 -18.958333333333332 -7.45817300045129 30 17 8
-26.21147733746153 49.98106060606061 -11.72159194946289 159 19 20
19.089644460967094 -19.204545454545453 -7.45817300045129 31 18 10
-16.563280278986152 -10.340909090909092 -18.09185721657493 141 29 28
-26.21147733746153 49.98106060606061 -11.72159194946289 160 17 21
-16.563280278986152 -10.587121212121213 -18.09185721657493 142 26 29
19.51609756007339 -19.696969696969695 -7.211960879239169 33 18 13
-26.21147733746153 49.734848484848484 -11.72159194946289 158 18 21
19.51609756007339 -19.696969696969695 -7.211960879239169 40 25 20
-16.563280278986152 -10.833333333333334 -18.09185721657493 142 23 27
-26.12135684851444 49.48863636363637 -11.385259339303682 151 18 23
19.51609756007339 -19.94318181818182 -7.211960879239169 43 30 24
-16.563280278986152 -11.079545454545455 -18.09185721657493 147 26 31
-26.12135684851444 49.24242424242424 -11.385259339303682 151 18 23
19.606218049020477 -20.435606060606062 -6.87562826907996 43 26 19
-16.563280278986152 -11.079545454545455 -18.09185721657493 144 25 29
-26.12135684851444 48.996212121212125 -11.385259339303682 151 18 23
19.606218049020477 -20.681818181818183 -6.87562826907996 43 28 23
-16.563280278986152 -11.325757575757576 -18.09185721657493 137 22 25
-25.818009810014203 48.996212121212125 -10.925820668538412 150 17 22
19.696338537967566 -21.174242424242426 -6.539295658920751 46 32 23
-16.563280278986152 -11.571969696969697 -18.09185721657493 128 22 24
-25.818009810014203 48.75 -10.925820668538412 149 16 21
20.573394081809305 -24.375 -4.611420486912583 103 42 37
-16.259933240485914 -11.818181818181818 -17.63241854580966 103 29 26
-25.818009810014203 48.50378787878788 -10.925820668538412 149 16 21
-16.259933240485914 -12.06439393939394 -17.63241854580966 94 31 26
20.66351457075639 -24.62121212121212 -4.275087876753374 116 38 34
-25.818009810014203 48.25757575757576 -10.925820668538412 149 16 21
-16.473159790039062 -12.31060606060606 -17.75552460641572 89 20 15
21.270193620161578 -27.575757575757578 -3.356218049020478 119 28 25
-25.941115870620266 48.01136363636364 -10.712594118985264 148 15 20
21.270193620161578 -27.8219696969697 -3.356218049020478 121 27 25
-15.98957177364465 -17.481060606060606 -16.62342071533203 124 39 42
-25.941115870620266 48.01136363636364 -10.712594118985264 149 16 21
-15.98957177364465 -17.481060606060606 -16.62342071533203 126 25 29
21.360314109108664 -28.31439393939394 -3.019885438861269 128 25 26
-25.850995381673176 47.765151515151516 -10.376261508826053 149 16 21
-15.98957177364465 -17.973484848484848 -16.62342071533203 126 32 33
21.360314109108664 -28.560606060606062 -3.019885438861269 129 24 28
-15.98957177364465 -17.973484848484848 -16.62342071533203 127 23 24
21.360314109108664 -28.806818181818183 -3.019885438861269 129 24 28
-15.98957177364465 -18.21969696969697 -16.62342071533203 128 28 28
21.360314109108664 -28.806818181818183 -3.019885438861269 129 26 29
-15.98957177364465 -18.46590909090909 -16.62342071533203 132 23 26
21.360314109108664 -29.053030303030305 -3.019885438861269 126 28 29
-15.98957177364465 -18.46590909090909 -16.62342071533203 133 24 27
21.360314109108664 -29.299242424242426 -3.019885438861269 123 29 29
-15.98957177364465 -18.71212121212121 -16.62342071533203 135 25 28
21.360314109108664 -29.545454545454547 -3.019885438861269 119 31 30
-25.850995381673176 47.5189393939394 -10.376261508826053 149 16 21
-16.07969226259174 -18.958333333333332 -16.959753325491242 132 21 27
21.360314109108664 -30.53030303030303 -3.019885438861269 89 34 29
-16.07969226259174 -19.204545454545453 -16.959753325491242 136 23 27
21.967008186109137 -32.00757575757576 -2.101008097330729 81 32 28
-25.637768832120027 47.27272727272727 -10.253155448219992 149 16 21
22.057128675056227 -32.5 -1.76467548717152 81 35 35
-16.07969226259174 -19.450757575757574 -16.959753325491242 132 23 26
-25.54764834317294 47.02651515151515 -9.916822838060783 149 16 21
22.057128675056227 -32.746212121212125 -1.76467548717152 68 34 33
-16.07969226259174 -19.696969696969695 -16.959753325491242 129 25 26
-25.54764834317294 47.02651515151515 -9.916822838060783 148 15 20
-15.98957177364465 -19.94318181818182 -16.62342071533203 129 25 26
22.057128675056227 -32.99242424242424 -1.76467548717152 57 27 25
-44.09721605705492 -45.79545454545455 27.136200413559422 104 80 44
22.057128675056227 -33.23863636363637 -1.76467548717152 50 24 23
-15.98957177364465 -20.18939393939394 -16.62342071533203 128 25 26
-25.54764834317294 46.78030303030303 -9.916822838060783 147 14 19
22.057128675056227 -33.484848484848484 -1.76467548717152 45 25 24
-15.98957177364465 -20.18939393939394 -16.62342071533203 127 24 25
22.057128675056227 -33.73106060606061 -1.76467548717152 41 27 24
-50.05806200432055 31.515151515151516 -5.872633962920218 188 45 29
-25.54764834317294 46.53409090909091 -9.916822838060783 147 14 19
22.057128675056227 -33.97727272727273 -1.76467548717152 35 28 22
-16.07969226259174 -20.435606060606062 -16.959753325491242 127 24 27
-50.14818249326764 31.268939393939394 -6.208966573079427 185 41 30
-29.521771055279356 40.625 -22.730425054376777 33 29 52
22.057128675056227 -33.97727272727273 -1.76467548717152 31 28 23
-16.07969226259174 -20.681818181818183 -16.959753325491242 127 21 25
-50.14818249326764 31.268939393939394 -6.208966573079427 183 39 28
21.75378163655599 -33.97727272727273 -2.22411415793679 30 32 27
-16.07969226259174 -20.681818181818183 -16.959753325491242 130 21 26
-11.639037854743727 35.208333333333336 -26.620889143510297 178 45 38
21.75378163655599 -34.22348484848485 -2.22411415793679 29 31 26
-16.07969226259174 -20.928030303030305 -16.959753325491242 131 20 26
-50.23830298221473 31.022727272727273 -6.545299183238637 181 37 29
21.967008186109137 -34.71590909090909 -2.101008097330729 29 29 27
-11.852264404296875 35.208333333333336 -26.74399520411636 179 42 36
-50.23830298221473 31.022727272727273 -6.545299183238637 178 34 26
21.967008186109137 -34.96212121212121 -2.101008097330729 28 28 26
-11.852264404296875 34.96212121212121 -26.74399520411636 176 43 34
-11.729158343690814 34.71590909090909 -26.957221753669508 170 44 30
-50.23830298221473 30.776515151515152 -6.545299183238637 178 33 30
-12.03250538219105 34.46969696969697 -27.416660424434777 166 43 28
-12.03250538219105 34.22348484848485 -27.416660424434777 172 40 28
-50.23830298221473 30.53030303030303 -6.545299183238637 177 32 29
-12.122625871138139 33.97727272727273 -27.752993034593988 170 37 30
21.967008186109137 -35.208333333333336 -2.101008097330729 29 27 28
-12.212746360085227 33.97727272727273 -28.089325644753195 166 37 31
-50.32842347116181 30.53030303030303 -6.881631793397846 174 32 30
21.967008186109137 -35.45454545454545 -2.101008097330729 28 26 27
-12.212746360085227 33.73106060606061 -28.089325644753195 165 38 31
-31.799548755992543 -36.68560606060606 -4.997321620131984 31 31 41
-12.212746360085227 33.484848484848484 -28.089325644753195 161 37 29
-50.20531741055575 30.28409090909091 -7.094858342950994 167 29 26
21.967008186109137 -35.70075757575758 -2.101008097330729 30 26 27
21.967008186109137 -35.946969696969695 -2.101008097330729 30 26 27
-31.799548755992543 -36.93181818181818 -4.997321620131984 30 30 38
-12.212746360085227 33.484848484848484 -28.089325644753195 161 37 29
-50.20531741055575 30.03787878787879 -7.094858342950994 167 29 27
-12.212746360085227 33.23863636363637 -28.089325644753195 160 36 28
21.75378163655599 -35.946969696969695 -2.22411415793679 25 21 20
-31.799548755992543 -37.178030303030305 -4.997321620131984 33 33 41
-12.212746360085227 32.99242424242424 -28.089325644753195 158 34 26
-50.4185439601089 30.03787878787879 -7.217964403557055 164 29 26
-31.799548755992543 -37.178030303030305 -4.997321620131984 37 37 45
-12.212746360085227 32.746212121212125 -28.089325644753195 158 35 28
-31.889669244939633 -37.42424242424242 -5.333654230291193 38 37 45
-12.212746360085227 32.5 -28.089325644753195 158 35 28
-31.889669244939633 -37.42424242424242 -5.333654230291193 32 31 39
-12.212746360085227 32.5 -28.089325644753195 155 32 27
-50.20531741055575 29.791666666666668 -7.094858342950994 166 28 26
-31.889669244939633 -37.67045454545455 -5.333654230291193 31 30 36
-12.212746360085227 32.25378787878788 -28.089325644753195 155 32 27
-31.889669244939633 -37.916666666666664 -5.333654230291193 34 33 39
-50.20531741055575 29.545454545454547 -7.094858342950994 164 26 24
-31.76656318433357 -37.916666666666664 -5.546880779844342 33 32 38
-12.302866849032316 32.00757575757576 -28.425658254912406 152 30 25
-31.889669244939633 -38.16287878787879 -5.333654230291193 35 34 40
-50.20531741055575 29.545454545454547 -7.094858342950994 161 23 21
-12.302866849032316 31.761363636363637 -28.425658254912406 152 30 25
-31.889669244939633 -38.40909090909091 -5.333654230291193 35 34 40
-12.302866849032316 31.761363636363637 -28.425658254912406 149 30 26
-31.76656318433357 -38.65530303030303 -5.546880779844342 36 35 41
-50.4185439601089 29.299242424242426 -7.217964403557055 157 22 19
-12.392987337979404 31.515151515151516 -28.761990865071613 148 29 25
-31.76656318433357 -38.65530303030303 -5.546880779844342 38 36 41
-12.392987337979404 31.268939393939394 -28.761990865071613 148 29 25
-31.76656318433357 -38.90151515151515 -5.546880779844342 39 37 42
-50.20531741055575 29.053030303030305 -7.094858342950994 149 19 17
-12.392987337979404 31.022727272727273 -28.761990865071613 148 29 25
-31.76656318433357 -39.14772727272727 -5.546880779844342 39 37 42
-22.395189458673652 -35.70075757575758 -18.331592444217566 26 25 23
-8.229787421948982 -35.45454545454545 -17.260726003935844 36 31 28
-31.889669244939633 -39.39393939393939 -5.333654230291193 37 35 40
-50.4185439601089 29.053030303030305 -7.217964403557055 145 17 14
-31.76656318433357 -39.39393939393939 -5.546880779844342 41 36 40
-8.623254949396307 -35.45454545454545 -18.05649728486032 34 29 26
-50.20531741055575 28.806818181818183 -7.094858342950994 142 14 11
-31.76656318433357 -39.640151515151516 -5.546880779844342 42 38 39
-8.680389866684422 -35.45454545454545 -18.94238905473189 39 34 31
-22.395189458673652 -35.946969696969695 -18.331592444217566 28 27 25
-8.89361641623757 -35.45454545454545 -19.06549511533795 39 34 31
-50.4185439601089 28.560606060606062 -7.217964403557055 145 20 16
-31.76656318433357 -39.88636363636364 -5.546880779844342 44 38 40
-10.311394893761838 -35.45454545454545 -23.01135843450373 32 28 27
-22.395189458673652 -36.19318181818182 -18.331592444217566 28 27 25
-50.4185439601089 28.560606060606062 -7.217964403557055 152 27 23
-10.401500355113637 -35.45454545454545 -23.347691044662938 30 29 27
-22.395189458673652 -36.43939393939394 -18.331592444217566 28 27 25
-31.76656318433357 -40.13257575757576 -5.546880779844342 44 38 38
-11.368676387902463 -35.45454545454545 -25.611898826830316 27 26 24
-50.4185439601089 28.31439393939394 -7.217964403557055 157 32 28
-22.395189458673652 -36.43939393939394 -18.331592444217566 27 26 24
-11.368676387902463 -35.45454545454545 -25.611898826830316 35 34 32
-31.97978973388672 -40.13257575757576 -5.669986840450402 42 36 36
-22.395189458673652 -36.68560606060606 -18.331592444217566 28 27 25
-11.368676387902463 -35.70075757575758 -25.611898826830316 39 38 36
-50.29543789950284 28.06818181818182 -7.431190953110204 153 28 26
-31.97978973388672 -40.37878787878788 -5.669986840450402 42 36 36
-11.368676387902463 -35.946969696969695 -25.611898826830316 23 22 20
-22.395189458673652 -36.93181818181818 -18.331592444217566 28 27 25
-31.97978973388672 -40.37878787878788 -5.669986840450402 40 36 37
-11.368676387902463 -36.19318181818182 -25.611898826830316 25 24 22
-50.475678877397016 27.8219696969697 -8.103856173428623 147 23 21
-32.069910222833805 -40.625 -6.006319450609612 40 36 37
-11.368676387902463 -36.43939393939394 -25.611898826830316 26 25 23
-22.395189458673652 -37.178030303030305 -18.331592444217566 29 28 26
-32.069910222833805 -40.871212121212125 -6.006319450609612 43 41 46
-11.368676387902463 -36.68560606060606 -25.611898826830316 27 26 24
-50.475678877397016 27.575757575757578 -8.103856173428623 147 23 23
-31.97978973388672 -41.11742424242424 -5.669986840450402 49 44 50
-11.368676387902463 -36.93181818181818 -25.611898826830316 27 26 24
-31.97978973388672 -41.11742424242424 -5.669986840450402 45 39 43
-11.368676387902463 -36.93181818181818 -25.611898826830316 26 25 23
-50.56579936634411 27.329545454545453 -8.440188783587832 146 22 22
-22.395189458673652 -37.178030303030305 -18.331592444217566 29 28 26
-31.97978973388672 -41.36363636363637 -5.669986840450402 44 33 37
-11.45879687684955 -36.93181818181818 -25.94822392319188 23 22 20
-22.395189458673652 -37.42424242424242 -18.331592444217566 30 28 29
-50.56579936634411 27.329545454545453 -8.440188783587832 145 23 22
-11.45879687684955 -37.178030303030305 -25.94822392319188 23 22 20
-22.395189458673652 -37.67045454545455 -18.331592444217566 31 29 30
-32.069910222833805 -41.609848484848484 -6.006319450609612 60 46 46
-11.45879687684955 -37.42424242424242 -25.94822392319188 33 29 28
-22.48530994762074 -37.67045454545455 -18.667925054376777 32 30 31
-50.475678877397016 27.083333333333332 -8.103856173428623 146 22 22
-11.368676387902463 -37.67045454545455 -25.611898826830316 31 27 26
-22.48530994762074 -37.916666666666664 -18.667925054376777 33 31 32
-32.069910222833805 -41.609848484848484 -6.006319450609612 66 46 45
-11.368676387902463 -37.916666666666664 -25.611898826830316 31 30 28
-22.48530994762074 -38.16287878787879 -18.667925054376777 33 31 32
-50.475678877397016 26.83712121212121 -8.103856173428623 145 21 21
-11.368676387902463 -38.16287878787879 -25.611898826830316 32 31 29
-32.1600307117809 -41.85606060606061 -6.342652060768821 62 41 38
-11.548917365796639 -38.16287878787879 -26.28455653335109 28 28 26
-22.48530994762074 -38.40909090909091 -18.667925054376777 33 31 32
-50.56579936634411 26.83712121212121 -8.440188783587832 143 21 20
-11.548917365796639 -38.16287878787879 -26.28455653335109 28 28 26
-11.548917365796639 -38.40909090909091 -26.28455653335109 28 28 26
-6.092788233901516 28.560606060606062 -30.810597737630207 139 25 24
-32.069910222833805 -42.10227272727273 -6.006319450609612 92 65 58
-50.56579936634411 26.59090909090909 -8.440188783587832 144 21 23
-22.48530994762074 -38.40909090909091 -18.667925054376777 32 30 31
-32.1600307117809 -42.10227272727273 -6.342652060768821 104 74 64
-6.1829087228486035 28.31439393939394 -31.146930347789418 137 23 22
-50.56579936634411 26.34469696969697 -8.440188783587832 144 21 23
-32.1600307117809 -42.34848484848485 -6.342652060768821 69 37 24
-22.395189458673652 -38.65530303030303 -18.331592444217566 31 29 30
-34.47016282515092 -45.303030303030305 -15.636836543227687 107 60 4
-50.56579936634411 26.34469696969697 -8.440188783587832 144 21 23
-6.1829087228486035 28.06818181818182 -31.146930347789418 138 24 23
-32.1600307117809 53.67424242424242 -6.342652060768821 207 74 43
-22.395189458673652 -38.90151515151515 -18.331592444217566 32 30 31
-6.1829087228486035 27.8219696969697 -31.146930347789418 138 24 23
-32.1600307117809 53.428030303030305 -6.342652060768821 196 60 36
-50.56579936634411 26.098484848484848 -8.440188783587832 144 21 23
-6.1829087228486035 27.8219696969697 -31.146930347789418 139 25 24
-32.1600307117809 53.428030303030305 -6.342652060768821 187 40 30
-22.305068969726562 -39.14772727272727 -17.995267347856 33 29 30
-50.655919855291195 26.098484848484848 -8.776521393747041 142 19 21
-6.1829087228486035 27.575757575757578 -31.146930347789418 139 25 24
-22.305068969726562 -39.39393939393939 -17.995267347856 32 28 29
-6.1829087228486035 27.329545454545453 -31.146930347789418 139 25 24
-32.069910222833805 53.18181818181818 -6.006319450609612 179 25 23
-50.655919855291195 25.852272727272727 -8.776521393747041 143 20 22
-6.1829087228486035 27.083333333333332 -31.146930347789418 138 26 24
-31.97978973388672 52.93560606060606 -5.669986840450402 173 19 21
-22.305068969726562 -39.640151515151516 -17.995267347856 32 28 29
-6.1829087228486035 26.83712121212121 -31.146930347789418 138 26 24
-31.97978973388672 52.68939393939394 -5.669986840450402 172 19 21
-50.44269330573805 25.606060606060606 -8.65341533314098 143 20 22
-22.305068969726562 -39.88636363636364 -17.995267347856 33 29 30
-6.396135272401752 26.83712121212121 -31.27003640839548 138 26 24
-50.44269330573805 25.359848484848484 -8.65341533314098 143 20 22
-31.97978973388672 52.68939393939394 -5.669986840450402 167 18 22
-6.1829087228486035 26.59090909090909 -31.146930347789418 138 26 24
-22.48530994762074 -39.88636363636364 -18.667925054376777 30 28 29
-31.76656318433357 52.44318181818182 -5.546880779844342 166 20 23
-6.1829087228486035 26.34469696969697 -31.146930347789418 138 26 24
-50.655919855291195 25.359848484848484 -8.776521393747041 141 21 22
-31.76656318433357 52.196969696969695 -5.546880779844342 164 19 22
-6.396135272401752 26.098484848484848 -31.27003640839548 139 27 25
-22.48530994762074 -39.88636363636364 -18.667925054376777 32 30 31
-31.76656318433357 51.95075757575758 -5.546880779844342 162 19 21
-6.396135272401752 26.098484848484848 -31.27003640839548 140 26 25
-11.639037854743727 -38.40909090909091 -26.620889143510297 27 27 25
-22.575430436567828 -39.88636363636364 -19.004257664535984 34 32 33
-6.396135272401752 25.852272727272727 -31.27003640839548 140 26 25
-50.655919855291195 25.113636363636363 -8.776521393747041 141 21 22
-22.575430436567828 -40.13257575757576 -19.004257664535984 34 30 31
-11.639037854743727 -38.65530303030303 -26.620889143510297 27 27 25
-11.852264404296875 -38.90151515151515 -26.74399520411636 26 26 24
-6.48625576134884 25.606060606060606 -31.606369018554688 139 25 25
-22.665550925514914 -40.13257575757576 -19.340590274695195 31 27 28
-11.729158343690814 -38.90151515151515 -26.957221753669508 30 29 27
-6.48625576134884 25.359848484848484 -31.606369018554688 139 25 25
-11.729158343690814 -39.14772727272727 -26.957221753669508 40 39 37
-50.655919855291195 24.867424242424242 -8.776521393747041 141 21 22
-22.665550925514914 -40.37878787878788 -19.340590274695195 29 27 28
-11.729158343690814 -39.39393939393939 -26.957221753669508 40 36 35
-6.48625576134884 25.359848484848484 -31.606369018554688 139 25 25
-11.729158343690814 -39.39393939393939 -26.957221753669508 29 25 24
-50.655919855291195 24.867424242424242 -8.776521393747041 141 21 22
-22.665550925514914 -40.625 -19.340590274695195 30 28 29
-11.819278832637902 -39.640151515151516 -27.29355436382872 31 25 25
-6.48625576134884 25.113636363636363 -31.606369018554688 140 26 26
-11.819278832637902 -39.640151515151516 -27.29355436382872 33 27 27
-50.655919855291195 24.62121212121212 -8.776521393747041 141 21 22
-6.363149700742779 24.867424242424242 -31.819595568107836 139 25 25
-11.819278832637902 -39.88636363636364 -27.29355436382872 36 28 26
-22.755671414462004 -40.625 -19.676922884854402 32 32 32
-6.48625576134884 24.62121212121212 -31.606369018554688 140 26 26
-11.819278832637902 -40.13257575757576 -27.29355436382872 36 28 26
-50.655919855291195 24.375 -8.776521393747041 141 21 22
-6.48625576134884 24.375 -31.606369018554688 140 26 26
-11.819278832637902 -40.37878787878788 -27.29355436382872 37 29 27
-22.755671414462004 -40.871212121212125 -19.676922884854402 32 32 32
-6.363149700742779 24.375 -31.819595568107836 140 26 26
-11.819278832637902 -40.625 -27.29355436382872 37 29 27
-50.74604034423828 24.375 -9.11285400390625 141 21 22
-6.363149700742779 24.12878787878788 -31.819595568107836 141 25 25
-11.819278832637902 -40.625 -27.29355436382872 36 26 24
-22.968897964015152 -40.871212121212125 -19.800028945460465 29 29 29
-50.74604034423828 24.12878787878788 -9.11285400390625 141 21 22
-6.363149700742779 23.882575757575758 -31.819595568107836 141 25 25
-11.819278832637902 -40.871212121212125 -27.29355436382872 36 25 21
-22.93591239235618 -40.871212121212125 -20.349588105172824 38 38 38
-11.819278832637902 -41.11742424242424 -27.29355436382872 39 24 17
-6.363149700742779 23.636363636363637 -31.819595568107836 141 25 25
-50.62293428363222 24.12878787878788 -9.326080553459398 141 23 23
-11.819278832637902 -41.36363636363637 -27.29355436382872 44 26 16
-22.93591239235618 -41.11742424242424 -20.349588105172824 51 50 48
-6.576376250295928 23.636363636363637 -31.9427016287139 141 25 25
-11.819278832637902 -41.36363636363637 -27.29355436382872 55 31 19
-50.62293428363222 23.882575757575758 -9.326080553459398 141 23 23
-6.576376250295928 23.390151515151516 -31.9427016287139 141 25 25
-11.819278832637902 -41.609848484848484 -27.29355436382872 68 39 23
-22.93591239235618 -41.36363636363637 -20.349588105172824 34 30 27
-6.576376250295928 23.143939393939394 -31.9427016287139 141 25 25
-12.212746360085227 -41.609848484848484 -28.089325644753195 108 54 28
-50.62293428363222 23.636363636363637 -9.326080553459398 141 23 23
-6.576376250295928 22.897727272727273 -31.9427016287139 141 25 25
-12.392987337979404 -41.85606060606061 -28.761990865071613 114 54 18
-12.606213887532553 -45.303030303030305 -28.885096925677676 139 75 27
-6.576376250295928 22.897727272727273 -31.9427016287139 141 25 25
-50.74604034423828 23.390151515151516 -9.11285400390625 142 24 24
-12.69633437647964 -45.303030303030305 -29.221429535836887 146 75 19
-6.666496739243017 22.651515151515152 -32.27903423887311 141 25 25
-12.57322831587358 -45.54924242424242 -29.434656085390035 151 76 19
-50.62293428363222 23.390151515151516 -9.326080553459398 141 23 23
21.75378163655599 -36.19318181818182 -2.22411415793679 26 22 21
-12.876575354373816 -45.54924242424242 -29.894094756155305 152 77 20
21.663661147608902 -36.19318181818182 -2.560446768095999 29 25 24
-50.62293428363222 23.143939393939394 -9.326080553459398 141 23 23
21.360314109108664 -36.43939393939394 -3.019885438861269 33 29 28
-13.179922392874053 -45.303030303030305 -30.353533426920574 155 78 22
20.66351457075639 -36.19318181818182 -4.275087876753374 37 33 32
-50.62293428363222 23.143939393939394 -9.326080553459398 141 23 23
-13.270027854225852 -45.303030303030305 -30.68986603707978 155 79 21
20.39315310391513 -35.946969696969695 -5.284085707231002 35 31 30
-13.360148343172941 -45.54924242424242 -31.026198647238992 153 78 20
-50.71305477257931 22.897727272727273 -9.662413163618607 141 23 23
-13.630509810014205 -45.303030303030305 -32.035188963918976 151 80 18
9.679454456676137 -35.70075757575758 -27.10621284716057 29 24 20
-13.933856848514441 -45.05681818181818 -32.49462763468424 152 81 19
-50.71305477257931 22.651515151515152 -9.662413163618607 141 23 23
-13.81075078790838 -45.303030303030305 -32.70785418423739 155 81 20
9.466227907122988 -35.70075757575758 -27.229318907766633 55 45 43
-14.114097826408617 -45.303030303030305 -33.167292855002664 155 79 17
-50.71305477257931 22.651515151515152 -9.662413163618607 141 23 23
-14.294338804302793 -45.303030303030305 -33.839958075321086 158 82 20
9.3761074181759 -36.93181818181818 -27.56565151792584 53 42 38
-14.687806331750119 -45.05681818181818 -34.63572935624556 160 84 22
