ply
format ascii 1.0
comment Java E3D tool
element vertex 725
property double x
property double y
property double z
property uint8 red
property uint8 green
property uint8 blue
end_header
-13.049242424242424 34.71590909090909 -9.109848484848484 188 52 38
18.71212121212121 34.22348484848485 -6.8939393939393945 138 19 15
-59.09090909090909 23.390151515151516 2.462121212121212 151 27 27
-30.776515151515152 -41.11742424242424 -0.24621212121212122 51 44 34
19.450757575757574 -40.871212121212125 18.21969696969697 68 44 32
18.958333333333332 33.97727272727273 -7.140151515151516 141 17 19
-13.049242424242424 34.46969696969697 -9.109848484848484 189 53 39
-59.09090909090909 23.143939393939394 2.462121212121212 151 27 27
-31.515151515151516 -45.54924242424242 0.7386363636363636 147 77 18
19.450757575757574 -41.11742424242424 18.21969696969697 68 44 34
18.958333333333332 33.73106060606061 -7.140151515151516 140 17 19
-58.84469696969697 22.897727272727273 2.215909090909091 151 27 27
-32.00757575757576 -45.54924242424242 1.4772727272727273 151 78 23
19.450757575757574 -41.36363636363637 18.21969696969697 68 44 32
-13.295454545454545 34.22348484848485 -8.863636363636363 188 52 38
18.958333333333332 33.484848484848484 -7.140151515151516 140 17 19
-59.09090909090909 22.651515151515152 2.462121212121212 151 27 27
-32.25378787878788 -45.54924242424242 1.7234848484848486 152 80 21
19.204545454545453 -41.36363636363637 18.21969696969697 71 44 35
19.204545454545453 33.23863636363637 -7.386363636363637 141 16 22
-13.295454545454545 33.97727272727273 -8.863636363636363 187 51 37
-59.09090909090909 22.651515151515152 2.462121212121212 150 28 27
19.450757575757574 -41.609848484848484 18.21969696969697 69 43 30
-32.5 -45.54924242424242 2.215909090909091 156 83 15
19.204545454545453 32.99242424242424 -7.386363636363637 140 17 20
-59.09090909090909 22.40530303030303 2.462121212121212 150 28 27
-13.541666666666666 33.73106060606061 -8.617424242424242 185 49 35
19.450757575757574 -41.85606060606061 18.21969696969697 72 44 32
-54.166666666666664 -45.54924242424242 34.96212121212121 34 30 18
19.450757575757574 32.746212121212125 -7.878787878787879 140 17 20
-59.09090909090909 22.15909090909091 2.462121212121212 149 27 26
19.204545454545453 -41.85606060606061 18.21969696969697 76 48 36
-53.428030303030305 -52.44318181818182 33.97727272727273 32 30 17
19.204545454545453 32.5 -7.386363636363637 138 18 20
-59.09090909090909 21.91287878787879 2.462121212121212 149 27 26
-13.541666666666666 33.484848484848484 -8.617424242424242 185 49 35
19.204545454545453 -42.10227272727273 18.21969696969697 80 52 40
-53.428030303030305 -52.68939393939394 33.97727272727273 38 39 23
19.204545454545453 32.25378787878788 -7.386363636363637 138 18 20
-59.09090909090909 21.666666666666668 2.462121212121212 149 27 26
-53.67424242424242 -52.68939393939394 34.22348484848485 57 60 43
19.450757575757574 -42.34848484848485 18.21969696969697 76 47 33
19.696969696969695 32.00757575757576 -8.125 138 18 20
-59.09090909090909 21.420454545454547 2.462121212121212 149 27 26
-13.541666666666666 33.23863636363637 -8.617424242424242 185 49 35
-53.67424242424242 -52.93560606060606 34.46969696969697 76 83 65
19.450757575757574 -42.59469696969697 18.21969696969697 73 44 30
19.696969696969695 31.761363636363637 -8.125 137 18 20
-59.09090909090909 21.174242424242426 2.462121212121212 149 27 26
-53.67424242424242 -52.93560606060606 34.46969696969697 84 91 73
19.450757575757574 -42.84090909090909 18.21969696969697 64 32 19
19.94318181818182 31.515151515151516 -8.371212121212121 137 18 20
-13.541666666666666 32.99242424242424 -8.617424242424242 186 48 35
-59.09090909090909 20.928030303030305 2.462121212121212 149 27 26
-53.92045454545455 -53.18181818181818 34.71590909090909 85 92 74
23.390151515151516 -45.79545454545455 14.280303030303031 100 43 16
19.94318181818182 31.268939393939394 -8.371212121212121 137 18 20
-58.84469696969697 20.681818181818183 2.215909090909091 147 27 26
-23.636363636363637 25.113636363636363 -10.587121212121213 138 19 21
23.143939393939394 -45.79545454545455 14.526515151515152 104 44 16
19.696969696969695 31.268939393939394 -8.125 135 19 20
-13.787878787878789 32.99242424242424 -8.371212121212121 186 48 35
-58.84469696969697 20.681818181818183 2.215909090909091 147 27 26
22.40530303030303 -45.54924242424242 15.265151515151516 114 52 15
-23.636363636363637 24.867424242424242 -10.587121212121213 138 19 21
20.18939393939394 30.776515151515152 -8.617424242424242 135 19 20
-58.84469696969697 20.18939393939394 1.7234848484848486 149 27 26
-13.787878787878789 32.746212121212125 -8.371212121212121 186 50 36
-23.882575757575758 24.62121212121212 -10.340909090909092 138 19 21
22.15909090909091 -45.79545454545455 15.265151515151516 124 59 21
20.435606060606062 30.53030303030303 -8.863636363636363 137 18 20
-58.84469696969697 20.18939393939394 1.7234848484848486 149 27 26
21.174242424242426 -45.54924242424242 16.49621212121212 139 65 26
-23.882575757575758 24.62121212121212 -10.340909090909092 138 19 21
20.435606060606062 30.28409090909091 -8.863636363636363 135 19 20
-58.84469696969697 19.94318181818182 1.7234848484848486 149 27 26
-13.787878787878789 32.5 -8.371212121212121 186 50 36
20.928030303030305 -45.54924242424242 16.742424242424242 139 65 20
-23.636363636363637 24.12878787878788 -10.587121212121213 139 20 22
20.18939393939394 30.28409090909091 -8.617424242424242 135 19 20
-58.84469696969697 19.696969696969695 1.7234848484848486 150 28 27
20.18939393939394 -45.54924242424242 17.234848484848484 141 68 17
-23.636363636363637 23.882575757575758 -10.587121212121213 139 20 22
20.435606060606062 30.03787878787879 -8.863636363636363 134 18 19
-58.59848484848485 19.450757575757574 1.4772727272727273 147 27 26
-13.787878787878789 32.25378787878788 -7.878787878787879 185 49 35
20.18939393939394 -45.54924242424242 17.481060606060606 144 70 9
-23.636363636363637 23.882575757575758 -10.587121212121213 139 20 22
20.928030303030305 29.545454545454547 -9.356060606060606 134 20 20
-58.59848484848485 19.204545454545453 1.4772727272727273 147 27 26
-23.636363636363637 23.636363636363637 -10.587121212121213 139 20 22
19.94318181818182 -45.54924242424242 17.727272727272727 152 78 7
-13.787878787878789 32.00757575757576 -7.878787878787879 184 48 34
-58.84469696969697 18.958333333333332 1.7234848484848486 146 26 25
20.928030303030305 29.299242424242426 -9.356060606060606 134 20 20
19.450757575757574 -45.54924242424242 18.21969696969697 171 99 17
-23.636363636363637 23.390151515151516 -10.587121212121213 138 19 21
-13.787878787878789 31.761363636363637 -7.878787878787879 184 48 34
-58.59848484848485 18.71212121212121 1.4772727272727273 146 26 25
20.928030303030305 29.053030303030305 -9.356060606060606 134 20 20
-23.636363636363637 23.143939393939394 -10.587121212121213 138 19 21
-0.49242424242424243 -44.81060606060606 37.916666666666664 104 60 15
-13.787878787878789 31.515151515151516 -7.878787878787879 183 47 33
-58.59848484848485 18.46590909090909 1.4772727272727273 146 26 25
21.174242424242426 28.806818181818183 -9.602272727272727 134 22 21
33.484848484848484 27.575757575757578 4.1856060606060606 149 24 22
-23.636363636363637 22.897727272727273 -10.587121212121213 138 19 21
-13.787878787878789 31.515151515151516 -7.878787878787879 182 46 34
-58.59848484848485 18.21969696969697 1.4772727272727273 146 26 25
21.420454545454547 28.560606060606062 -9.848484848484848 136 26 27
33.484848484848484 27.329545454545453 4.1856060606060606 151 23 22
-13.787878787878789 31.268939393939394 -7.878787878787879 181 45 33
-23.636363636363637 22.651515151515152 -10.587121212121213 137 18 20
-58.59848484848485 17.973484848484848 1.231060606060606 146 26 25
21.666666666666668 28.31439393939394 -10.340909090909092 137 29 29
33.73106060606061 27.083333333333332 3.9393939393939394 149 24 22
-14.280303030303031 31.022727272727273 -7.386363636363637 176 42 30
-23.882575757575758 22.40530303030303 -10.340909090909092 137 18 20
-58.59848484848485 17.973484848484848 1.4772727272727273 146 26 25
8.617424242424242 -6.15530303030303 4.924242424242424 149 23 24
33.73106060606061 26.83712121212121 3.9393939393939394 149 24 22
-14.280303030303031 30.776515151515152 -7.386363636363637 176 42 30
-23.636363636363637 22.15909090909091 -10.587121212121213 137 18 20
-58.35227272727273 17.481060606060606 0.9848484848484849 144 26 24
8.617424242424242 -6.401515151515151 4.924242424242424 148 24 24
33.97727272727273 26.59090909090909 3.6931818181818183 149 24 22
-14.280303030303031 30.53030303030303 -7.386363636363637 176 42 31
-23.636363636363637 21.91287878787879 -10.587121212121213 137 18 20
-58.35227272727273 17.234848484848484 0.9848484848484849 144 26 24
8.617424242424242 -6.6477272727272725 4.924242424242424 147 23 23
33.97727272727273 26.34469696969697 3.6931818181818183 149 24 22
-14.280303030303031 30.28409090909091 -7.386363636363637 175 41 30
-23.636363636363637 21.666666666666668 -10.587121212121213 137 18 20
-58.35227272727273 17.234848484848484 0.9848484848484849 145 27 25
8.617424242424242 -6.8939393939393945 4.678030303030303 146 22 22
33.97727272727273 26.098484848484848 3.6931818181818183 149 24 22
-14.280303030303031 30.03787878787879 -7.386363636363637 174 40 29
-23.390151515151516 21.420454545454547 -10.833333333333334 135 19 19
-58.35227272727273 16.742424242424242 0.7386363636363636 145 27 25
8.617424242424242 -7.140151515151516 4.678030303030303 146 22 22
34.22348484848485 25.852272727272727 3.4469696969696972 149 24 22
-14.280303030303031 29.791666666666668 -7.386363636363637 174 40 29
-23.636363636363637 21.174242424242426 -10.587121212121213 135 19 20
-58.35227272727273 16.742424242424242 0.7386363636363636 141 25 25
8.863636363636363 -7.386363636363637 4.431818181818182 146 22 22
34.22348484848485 25.606060606060606 3.4469696969696972 149 24 22
-14.526515151515152 29.791666666666668 -7.140151515151516 171 39 27
-23.390151515151516 20.928030303030305 -10.833333333333334 135 19 19
-58.35227272727273 16.49621212121212 0.7386363636363636 141 25 25
8.863636363636363 -7.632575757575758 4.431818181818182 146 22 24
34.46969696969697 25.359848484848484 3.2007575757575757 149 24 22
-14.772727272727273 29.545454545454547 -6.8939393939393945 169 39 26
-23.390151515151516 20.681818181818183 -10.833333333333334 135 19 19
-58.35227272727273 16.25 0.7386363636363636 141 25 25
9.109848484848484 -7.878787878787879 4.1856060606060606 146 22 22
34.46969696969697 25.113636363636363 3.2007575757575757 149 24 22
-14.526515151515152 29.299242424242426 -7.140151515151516 169 38 28
-23.390151515151516 20.435606060606062 -10.833333333333334 134 20 19
-58.10606060606061 16.00378787878788 0.49242424242424243 140 24 24
9.109848484848484 -8.125 4.1856060606060606 144 21 23
34.71590909090909 24.867424242424242 2.9545454545454546 149 24 22
-14.772727272727273 29.053030303030305 -6.8939393939393945 167 39 28
-23.390151515151516 20.435606060606062 -10.833333333333334 134 20 19
-57.859848484848484 15.757575757575758 0.24621212121212122 139 25 24
9.109848484848484 -8.371212121212121 4.1856060606060606 144 21 23
34.46969696969697 24.867424242424242 3.2007575757575757 149 24 22
-14.772727272727273 28.806818181818183 -6.8939393939393945 168 37 27
-23.390151515151516 20.18939393939394 -10.833333333333334 134 20 19
-57.859848484848484 15.511363636363637 0.24621212121212122 139 25 24
9.356060606060606 -8.617424242424242 3.9393939393939394 144 21 23
34.96212121212121 24.62121212121212 2.7083333333333335 149 24 22
-14.772727272727273 28.560606060606062 -6.8939393939393945 168 37 27
-23.390151515151516 19.94318181818182 -10.833333333333334 134 20 19
-57.859848484848484 15.265151515151516 0.24621212121212122 138 24 23
9.356060606060606 -8.863636363636363 3.9393939393939394 144 21 23
34.96212121212121 24.375 2.7083333333333335 149 24 22
-14.772727272727273 28.560606060606062 -6.6477272727272725 167 36 28
-23.390151515151516 19.696969696969695 -10.833333333333334 134 20 19
-57.859848484848484 15.018939393939394 0.24621212121212122 138 24 23
9.602272727272727 -9.109848484848484 3.6931818181818183 143 20 22
34.96212121212121 24.12878787878788 2.7083333333333335 149 24 22
-14.772727272727273 28.31439393939394 -6.6477272727272725 166 35 27
-23.390151515151516 19.450757575757574 -10.833333333333334 133 21 19
-57.859848484848484 14.772727272727273 0.24621212121212122 137 23 22
9.602272727272727 -9.356060606060606 3.6931818181818183 143 20 22
34.96212121212121 23.882575757575758 2.7083333333333335 149 24 22
-14.772727272727273 28.06818181818182 -6.6477272727272725 166 35 27
-23.390151515151516 19.204545454545453 -11.079545454545455 133 21 19
-57.61363636363637 14.526515151515152 -0.24621212121212122 137 23 22
9.602272727272727 -9.602272727272727 3.6931818181818183 140 20 21
35.45454545454545 23.636363636363637 2.215909090909091 149 24 22
-14.772727272727273 27.8219696969697 -6.8939393939393945 166 35 27
-23.390151515151516 18.958333333333332 -10.833333333333334 133 21 19
-57.859848484848484 14.280303030303031 0.0 136 24 22
9.602272727272727 -9.848484848484848 3.6931818181818183 140 20 21
35.208333333333336 23.390151515151516 2.462121212121212 149 24 22
-14.772727272727273 27.575757575757578 -6.8939393939393945 165 33 28
-23.390151515151516 18.71212121212121 -10.833333333333334 132 20 18
-57.61363636363637 14.03409090909091 -0.24621212121212122 135 23 21
9.848484848484848 -10.09469696969697 3.4469696969696972 142 19 22
35.45454545454545 23.143939393939394 2.215909090909091 149 24 22
-14.772727272727273 27.329545454545453 -6.8939393939393945 165 33 28
-23.390151515151516 18.46590909090909 -10.833333333333334 132 20 18
-57.61363636363637 13.787878787878789 -0.49242424242424243 134 22 20
9.848484848484848 -10.340909090909092 3.4469696969696972 140 20 22
35.45454545454545 22.897727272727273 2.215909090909091 148 24 22
-15.018939393939394 27.083333333333332 -6.401515151515151 161 32 26
-23.390151515151516 18.21969696969697 -11.079545454545455 133 21 19
-57.36742424242424 13.541666666666666 -0.7386363636363636 134 22 20
10.09469696969697 -10.587121212121213 3.2007575757575757 139 21 21
35.946969696969695 22.651515151515152 1.7234848484848486 148 24 22
-14.772727272727273 26.83712121212121 -6.6477272727272725 162 33 28
-23.390151515151516 17.973484848484848 -11.079545454545455 130 21 18
-57.36742424242424 13.295454545454545 -0.9848484848484849 131 21 20
10.09469696969697 -10.833333333333334 2.9545454545454546 136 22 21
35.946969696969695 22.40530303030303 1.7234848484848486 148 24 22
-14.772727272727273 26.59090909090909 -6.6477272727272725 160 33 27
-23.390151515151516 17.727272727272727 -11.079545454545455 129 21 18
-57.121212121212125 12.803030303030303 -1.4772727272727273 130 22 20
10.09469696969697 -11.079545454545455 2.9545454545454546 134 22 20
-14.772727272727273 26.34469696969697 -6.6477272727272725 158 33 27
-23.390151515151516 17.481060606060606 -11.079545454545455 127 22 18
-57.121212121212125 12.803030303030303 -1.4772727272727273 126 24 20
10.09469696969697 -11.325757575757576 2.9545454545454546 133 21 19
-14.772727272727273 26.34469696969697 -6.6477272727272725 157 32 26
-23.390151515151516 17.234848484848484 -11.079545454545455 127 22 18
-56.875 12.31060606060606 -1.9696969696969697 124 25 20
36.19318181818182 22.15909090909091 1.4772727272727273 148 24 22
10.09469696969697 -11.571969696969697 2.9545454545454546 132 20 18
-14.772727272727273 26.098484848484848 -6.6477272727272725 155 34 26
-23.390151515151516 16.988636363636363 -11.079545454545455 126 23 18
-56.875 12.06439393939394 -1.9696969696969697 126 24 20
36.19318181818182 21.91287878787879 1.4772727272727273 148 24 22
10.587121212121213 -11.818181818181818 2.462121212121212 130 21 18
-24.867424242424242 -38.65530303030303 7.878787878787879 37 30 24
-23.390151515151516 16.742424242424242 -11.079545454545455 126 23 18
-56.62878787878788 11.818181818181818 -2.462121212121212 125 23 21
36.19318181818182 21.666666666666668 1.4772727272727273 148 24 22
10.340909090909092 -12.06439393939394 2.7083333333333335 130 17 19
-24.867424242424242 -38.65530303030303 7.878787878787879 34 27 21
-23.390151515151516 16.49621212121212 -11.079545454545455 125 22 17
-56.62878787878788 11.571969696969697 -2.462121212121212 126 22 21
36.19318181818182 21.420454545454547 1.4772727272727273 148 24 22
10.833333333333334 -12.31060606060606 2.215909090909091 125 21 22
-25.113636363636363 -38.90151515151515 8.125 42 33 26
-23.390151515151516 16.25 -11.079545454545455 124 22 17
-56.62878787878788 11.325757575757576 -2.215909090909091 127 23 22
36.43939393939394 21.174242424242426 1.231060606060606 148 24 22
10.833333333333334 -12.556818181818182 2.215909090909091 117 23 24
-25.113636363636363 -39.14772727272727 8.125 52 41 35
-23.390151515151516 16.00378787878788 -11.079545454545455 125 23 19
-56.62878787878788 11.079545454545455 -2.462121212121212 128 22 24
36.68560606060606 20.928030303030305 0.9848484848484849 149 24 22
10.833333333333334 -12.803030303030303 2.215909090909091 102 22 23
-25.113636363636363 -39.14772727272727 8.125 62 49 43
-23.390151515151516 15.757575757575758 -11.079545454545455 123 24 19
-56.62878787878788 10.833333333333334 -2.462121212121212 128 22 24
36.68560606060606 20.681818181818183 0.9848484848484849 149 24 22
10.833333333333334 -13.049242424242424 2.215909090909091 76 16 16
-25.113636363636363 -39.39393939393939 8.125 64 49 42
-23.143939393939394 15.511363636363637 -11.571969696969697 125 23 19
-56.38257575757576 10.587121212121213 -2.9545454545454546 127 23 24
36.93181818181818 20.435606060606062 0.7386363636363636 149 24 22
11.079545454545455 -13.295454545454545 1.9696969696969697 40 7 2
-25.113636363636363 -39.640151515151516 8.125 64 47 40
-23.143939393939394 15.265151515151516 -11.571969696969697 123 24 19
-56.13636363636364 10.340909090909092 -3.2007575757575757 125 23 21
36.93181818181818 20.18939393939394 0.7386363636363636 149 24 22
11.079545454545455 -13.541666666666666 1.9696969696969697 26 7 0
-25.359848484848484 -39.640151515151516 8.371212121212121 61 41 32
-22.897727272727273 14.280303030303031 -11.818181818181818 126 24 22
-55.890151515151516 9.848484848484848 -3.9393939393939394 124 22 20
37.178030303030305 19.94318181818182 0.49242424242424243 154 24 24
11.079545454545455 -13.787878787878789 1.9696969696969697 23 13 4
-22.897727272727273 14.03409090909091 -11.818181818181818 124 24 24
-25.113636363636363 -40.13257575757576 8.125 70 47 39
-55.6439393939394 9.602272727272727 -4.1856060606060606 124 22 20
37.42424242424242 19.696969696969695 0.24621212121212122 154 24 26
11.079545454545455 -14.03409090909091 1.9696969696969697 20 11 6
-22.651515151515152 12.803030303030303 -12.06439393939394 128 30 29
-25.113636363636363 -40.37878787878788 8.125 70 46 34
-54.90530303030303 9.109848484848484 -5.909090909090909 125 21 22
37.42424242424242 19.450757575757574 0.24621212121212122 150 25 23
11.079545454545455 -14.280303030303031 1.9696969696969697 13 6 0
-22.651515151515152 12.06439393939394 -12.06439393939394 119 29 31
-25.359848484848484 -40.37878787878788 8.371212121212121 66 40 27
-54.65909090909091 8.617424242424242 -6.401515151515151 126 22 23
37.916666666666664 19.204545454545453 -0.24621212121212122 149 25 23
10.833333333333334 -14.280303030303031 2.215909090909091 13 10 1
-24.867424242424242 -4.924242424242424 -8.617424242424242 129 33 35
-25.359848484848484 -40.625 8.371212121212121 69 40 26
-54.41287878787879 8.371212121212121 -6.8939393939393945 126 22 23
37.916666666666664 18.958333333333332 -0.24621212121212122 148 26 23
10.833333333333334 -14.526515151515152 2.215909090909091 10 4 0
-25.113636363636363 -5.416666666666667 -8.371212121212121 138 25 27
-25.359848484848484 -40.871212121212125 8.371212121212121 71 39 24
-54.41287878787879 8.125 -6.8939393939393945 127 21 23
38.16287878787879 18.71212121212121 -0.49242424242424243 147 28 24
10.833333333333334 -14.772727272727273 2.215909090909091 13 0 0
-25.359848484848484 -5.909090909090909 -8.125 135 25 26
-25.359848484848484 -41.11742424242424 8.371212121212121 77 44 27
-53.92045454545455 7.632575757575758 -7.632575757575758 130 21 24
38.16287878787879 18.46590909090909 -0.49242424242424243 147 27 26
10.833333333333334 -15.018939393939394 2.215909090909091 53 16 7
-25.606060606060606 -7.140151515151516 -7.386363636363637 131 23 23
-25.359848484848484 -41.11742424242424 8.371212121212121 88 55 36
-52.68939393939394 6.8939393939393945 -10.09469696969697 125 25 33
38.40909090909091 18.21969696969697 -0.7386363636363636 146 28 26
10.833333333333334 -15.265151515151516 2.215909090909091 105 42 37
-25.606060606060606 -7.386363636363637 -7.386363636363637 142 23 27
-25.359848484848484 -41.36363636363637 8.371212121212121 102 64 43
-52.68939393939394 6.6477272727272725 -10.340909090909092 116 40 44
38.40909090909091 17.973484848484848 -0.7386363636363636 146 31 28
10.833333333333334 -15.511363636363637 2.215909090909091 132 44 43
-25.852272727272727 -7.632575757575758 -7.140151515151516 136 19 25
-25.359848484848484 -41.609848484848484 8.371212121212121 110 64 38
-52.68939393939394 6.401515151515151 -10.340909090909092 104 48 49
38.65530303030303 17.727272727272727 -0.9848484848484849 141 26 23
10.587121212121213 -15.511363636363637 2.462121212121212 129 30 33
-25.852272727272727 -8.125 -7.140151515151516 141 28 30
-25.359848484848484 -41.609848484848484 8.617424242424242 117 64 32
-58.35227272727273 26.83712121212121 1.9696969696969697 154 25 29
39.39393939393939 17.481060606060606 -1.7234848484848486 141 23 21
10.340909090909092 -15.757575757575758 2.7083333333333335 134 31 34
-25.852272727272727 -8.371212121212121 -7.140151515151516 135 27 27
-25.606060606060606 -41.85606060606061 8.863636363636363 120 66 32
-58.35227272727273 26.59090909090909 2.215909090909091 151 25 28
39.39393939393939 17.234848484848484 -1.7234848484848486 141 23 21
10.340909090909092 -15.757575757575758 2.7083333333333335 138 23 26
-26.098484848484848 -8.371212121212121 -6.8939393939393945 131 29 27
-26.59090909090909 -45.303030303030305 10.340909090909092 154 82 32
-58.35227272727273 25.852272727272727 2.215909090909091 154 26 27
39.39393939393939 16.988636363636363 -1.7234848484848486 143 23 22
10.340909090909092 -16.00378787878788 2.7083333333333335 143 23 25
-26.098484848484848 -8.863636363636363 -6.8939393939393945 133 28 25
-26.83712121212121 -45.54924242424242 10.340909090909092 151 75 23
-58.35227272727273 25.606060606060606 2.215909090909091 152 26 27
39.39393939393939 16.742424242424242 -1.7234848484848486 146 26 25
10.09469696969697 -16.25 2.9545454545454546 150 26 28
-26.098484848484848 -9.109848484848484 -6.6477272727272725 135 27 24
-27.329545454545453 -45.303030303030305 11.079545454545455 152 77 9
-58.59848484848485 25.606060606060606 2.462121212121212 150 27 29
39.39393939393939 16.49621212121212 -1.7234848484848486 147 27 28
10.09469696969697 -16.49621212121212 2.9545454545454546 149 23 24
-26.098484848484848 -9.356060606060606 -6.6477272727272725 141 25 25
-27.575757575757578 -45.303030303030305 11.325757575757576 148 77 0
-58.59848484848485 25.359848484848484 2.462121212121212 148 28 27
39.640151515151516 16.25 -1.9696969696969697 149 25 27
10.09469696969697 -16.742424242424242 2.9545454545454546 143 21 20
-26.34469696969697 -9.602272727272727 -6.401515151515151 138 26 24
-39.640151515151516 -45.05681818181818 28.31439393939394 146 99 21
-58.59848484848485 25.113636363636363 2.462121212121212 148 30 28
39.640151515151516 16.00378787878788 -1.9696969696969697 154 25 30
9.848484848484848 -16.742424242424242 3.4469696969696972 141 26 21
-29.791666666666668 40.37878787878788 -0.9848484848484849 188 35 29
-48.996212121212125 -45.05681818181818 41.11742424242424 21 24 13
-58.59848484848485 24.867424242424242 2.462121212121212 148 30 28
39.88636363636364 15.511363636363637 -2.215909090909091 150 27 29
9.848484848484848 -16.988636363636363 3.4469696969696972 142 22 21
-29.545454545454547 40.13257575757576 -1.4772727272727273 178 25 20
-48.996212121212125 -45.303030303030305 41.11742424242424 30 32 21
-58.84469696969697 24.62121212121212 2.7083333333333335 148 30 28
39.88636363636364 15.265151515151516 -2.215909090909091 147 29 27
10.09469696969697 -17.234848484848484 3.2007575757575757 145 23 22
-29.053030303030305 39.88636363636364 -1.9696969696969697 173 21 16
-48.996212121212125 -45.303030303030305 41.11742424242424 38 38 28
-58.84469696969697 24.62121212121212 2.7083333333333335 148 30 26
41.609848484848484 13.541666666666666 -3.9393939393939394 137 27 28
9.848484848484848 -17.234848484848484 3.4469696969696972 144 21 23
-28.06818181818182 39.39393939393939 -3.9393939393939394 159 15 4
-48.996212121212125 -45.54924242424242 41.11742424242424 48 44 35
-58.84469696969697 24.375 2.7083333333333335 148 29 25
41.609848484848484 13.295454545454545 -3.9393939393939394 133 24 29
9.848484848484848 -17.481060606060606 3.4469696969696972 142 22 23
-27.8219696969697 39.14772727272727 -4.1856060606060606 168 21 11
-14.526515151515152 25.852272727272727 -6.15530303030303 157 36 28
-58.84469696969697 24.12878787878788 2.7083333333333335 148 29 25
41.85606060606061 13.049242424242424 -4.1856060606060606 131 36 42
9.848484848484848 -17.727272727272727 3.4469696969696972 142 22 23
-28.06818181818182 38.90151515151515 -3.9393939393939394 164 15 9
-14.526515151515152 25.606060606060606 -6.15530303030303 155 34 26
-58.59848484848485 23.882575757575758 2.462121212121212 151 27 27
42.10227272727273 12.803030303030303 -4.431818181818182 105 33 34
9.848484848484848 -17.973484848484848 3.4469696969696972 142 22 23
-28.06818181818182 38.90151515151515 -3.9393939393939394 165 17 13
-14.772727272727273 25.359848484848484 -5.909090909090909 151 32 24
-58.84469696969697 23.636363636363637 2.7083333333333335 151 27 27
42.34848484848485 10.09469696969697 -4.678030303030303 41 37 28
9.602272727272727 -17.973484848484848 3.6931818181818183 142 22 23
-27.575757575757578 38.40909090909091 -4.431818181818182 174 24 23
-14.526515151515152 25.113636363636363 -6.15530303030303 154 31 26
-58.84469696969697 23.390151515151516 2.7083333333333335 151 27 27
42.10227272727273 9.848484848484848 -4.431818181818182 39 36 29
9.602272727272727 -18.21969696969697 3.6931818181818183 142 22 23
-27.8219696969697 38.40909090909091 -4.1856060606060606 164 20 20
-14.526515151515152 24.867424242424242 -6.15530303030303 154 30 28
-58.59848484848485 23.143939393939394 2.462121212121212 151 27 27
42.10227272727273 9.602272727272727 -4.431818181818182 38 33 27
9.602272727272727 -18.46590909090909 3.6931818181818183 142 22 23
-27.575757575757578 38.16287878787879 -4.431818181818182 161 18 20
-14.526515151515152 24.867424242424242 -6.15530303030303 154 30 28
-58.59848484848485 22.897727272727273 2.462121212121212 151 27 27
42.34848484848485 9.356060606060606 -4.678030303030303 39 32 26
9.356060606060606 -18.71212121212121 3.9393939393939394 141 23 23
-27.575757575757578 37.916666666666664 -4.431818181818182 155 19 21
-14.526515151515152 24.62121212121212 -6.15530303030303 154 32 29
-58.59848484848485 22.651515151515152 2.462121212121212 151 27 27
42.34848484848485 9.109848484848484 -4.678030303030303 48 37 33
9.356060606060606 -18.71212121212121 3.9393939393939394 141 23 23
-27.575757575757578 37.67045454545455 -4.431818181818182 152 21 26
-14.772727272727273 24.375 -5.909090909090909 155 27 26
-58.59848484848485 22.651515151515152 2.462121212121212 150 28 27
42.34848484848485 8.863636363636363 -4.678030303030303 64 50 47
9.356060606060606 -18.958333333333332 3.9393939393939394 141 23 23
-27.329545454545453 37.42424242424242 -4.678030303030303 153 20 23
-14.772727272727273 24.12878787878788 -5.909090909090909 155 31 29
-58.59848484848485 22.40530303030303 2.462121212121212 150 28 27
42.34848484848485 8.617424242424242 -4.678030303030303 77 63 60
9.356060606060606 -19.204545454545453 3.9393939393939394 141 23 23
-27.329545454545453 37.178030303030305 -4.678030303030303 149 20 24
-14.772727272727273 23.882575757575758 -5.909090909090909 153 31 30
-58.59848484848485 22.15909090909091 2.462121212121212 150 28 27
42.34848484848485 8.371212121212121 -4.678030303030303 72 64 61
9.109848484848484 -19.450757575757574 4.1856060606060606 141 23 23
-27.329545454545453 36.93181818181818 -4.678030303030303 144 21 26
-14.772727272727273 23.636363636363637 -5.909090909090909 150 30 29
-58.84469696969697 21.91287878787879 2.7083333333333335 149 27 26
29.791666666666668 61.553030303030305 7.878787878787879 163 28 24
8.863636363636363 -19.450757575757574 4.431818181818182 140 21 23
-27.329545454545453 36.68560606060606 -4.678030303030303 133 18 25
-14.772727272727273 23.390151515151516 -5.909090909090909 148 28 27
-58.84469696969697 21.666666666666668 2.7083333333333335 149 27 26
29.791666666666668 61.30681818181818 7.878787878787879 163 28 25
8.863636363636363 -19.696969696969695 4.431818181818182 140 21 23
-27.329545454545453 36.43939393939394 -4.924242424242424 132 19 23
-14.772727272727273 23.143939393939394 -5.909090909090909 148 26 25
-58.35227272727273 21.420454545454547 2.215909090909091 150 28 27
29.791666666666668 61.06060606060606 7.878787878787879 162 27 24
8.863636363636363 -19.94318181818182 4.431818181818182 138 22 23
-27.329545454545453 36.19318181818182 -4.924242424242424 117 11 13
-15.265151515151516 23.143939393939394 -5.170454545454546 151 29 26
-58.59848484848485 21.174242424242426 2.462121212121212 149 27 26
29.545454545454547 60.81439393939394 8.125 163 28 25
9.109848484848484 -20.18939393939394 4.1856060606060606 141 22 24
-22.897727272727273 30.53030303030303 -11.818181818181818 124 14 15
-15.265151515151516 22.897727272727273 -5.170454545454546 148 29 25
-58.59848484848485 21.174242424242426 2.462121212121212 149 27 26
29.545454545454547 60.56818181818182 8.125 163 28 25
8.863636363636363 -20.435606060606062 4.431818181818182 138 22 23
-23.143939393939394 30.28409090909091 -11.571969696969697 115 9 9
-15.265151515151516 22.651515151515152 -5.170454545454546 148 29 25
-58.59848484848485 20.928030303030305 2.462121212121212 147 27 26
29.545454545454547 60.321969696969695 8.125 163 28 25
8.863636363636363 -20.435606060606062 4.431818181818182 138 22 23
-22.897727272727273 30.03787878787879 -11.818181818181818 120 14 16
-15.265151515151516 22.40530303030303 -5.170454545454546 147 27 26
-58.59848484848485 20.681818181818183 2.462121212121212 147 27 26
29.545454545454547 60.321969696969695 8.125 164 29 26
8.863636363636363 -20.681818181818183 4.431818181818182 138 22 23
-22.897727272727273 29.791666666666668 -11.818181818181818 120 14 16
-15.265151515151516 22.40530303030303 -4.924242424242424 147 27 26
-58.59848484848485 20.435606060606062 2.462121212121212 149 27 26
29.299242424242426 60.07575757575758 8.371212121212121 164 29 26
8.863636363636363 -20.928030303030305 4.431818181818182 137 21 22
-22.897727272727273 29.545454545454547 -11.818181818181818 120 14 16
-15.265151515151516 22.15909090909091 -4.924242424242424 147 27 26
-58.35227272727273 20.18939393939394 1.9696969696969697 149 27 26
29.545454545454547 59.82954545454545 8.125 163 28 25
8.617424242424242 -21.174242424242426 4.678030303030303 136 20 21
-23.143939393939394 29.299242424242426 -11.571969696969697 117 14 15
-15.265151515151516 21.91287878787879 -5.170454545454546 146 26 25
-58.35227272727273 19.94318181818182 1.9696969696969697 149 27 26
29.299242424242426 59.583333333333336 8.371212121212121 163 28 25
8.617424242424242 -21.174242424242426 4.678030303030303 135 21 21
-23.143939393939394 29.053030303030305 -11.571969696969697 119 15 16
-15.265151515151516 21.666666666666668 -5.170454545454546 146 26 25
-58.35227272727273 19.696969696969695 2.215909090909091 150 28 27
29.299242424242426 59.33712121212121 8.371212121212121 163 28 25
8.617424242424242 -21.420454545454547 4.678030303030303 136 20 21
-23.390151515151516 28.806818181818183 -11.079545454545455 118 15 16
-15.265151515151516 21.420454545454547 -5.170454545454546 146 26 25
-58.35227272727273 19.450757575757574 2.215909090909091 147 27 26
29.053030303030305 59.09090909090909 8.617424242424242 163 28 25
8.617424242424242 -21.666666666666668 4.678030303030303 135 21 21
-23.390151515151516 28.560606060606062 -11.079545454545455 124 18 18
-15.265151515151516 21.174242424242426 -5.170454545454546 146 26 25
-58.10606060606061 19.204545454545453 1.7234848484848486 147 27 26
29.053030303030305 59.09090909090909 8.617424242424242 163 28 25
8.617424242424242 -21.91287878787879 4.924242424242424 135 21 21
-23.390151515151516 28.560606060606062 -11.079545454545455 126 18 18
-15.511363636363637 20.928030303030305 -4.678030303030303 147 27 26
-58.35227272727273 18.958333333333332 1.9696969696969697 146 26 25
29.053030303030305 58.84469696969697 8.617424242424242 163 28 25
8.371212121212121 -21.91287878787879 5.170454545454546 133 21 20
-23.390151515151516 28.31439393939394 -11.079545454545455 126 18 18
-15.511363636363637 20.681818181818183 -4.678030303030303 148 28 27
-58.35227272727273 18.71212121212121 1.9696969696969697 146 26 25
29.053030303030305 58.59848484848485 8.617424242424242 163 28 25
8.371212121212121 -22.15909090909091 5.170454545454546 133 21 20
-23.390151515151516 28.06818181818182 -11.079545454545455 127 19 19
-15.511363636363637 20.681818181818183 -4.678030303030303 148 28 27
-58.10606060606061 18.46590909090909 1.7234848484848486 147 27 26
29.053030303030305 58.35227272727273 8.617424242424242 163 28 25
8.617424242424242 -22.40530303030303 4.924242424242424 134 22 21
-23.390151515151516 27.8219696969697 -11.079545454545455 128 18 19
-15.265151515151516 20.18939393939394 -4.924242424242424 147 27 26
-58.10606060606061 18.21969696969697 1.4772727272727273 146 26 25
29.053030303030305 58.10606060606061 8.617424242424242 162 27 24
8.617424242424242 -22.651515151515152 4.924242424242424 134 20 20
-23.390151515151516 27.575757575757578 -10.833333333333334 129 19 20
-15.265151515151516 20.18939393939394 -4.924242424242424 147 27 26
-58.10606060606061 17.973484848484848 1.4772727272727273 146 26 25
29.053030303030305 57.859848484848484 8.617424242424242 162 27 24
8.371212121212121 -22.897727272727273 5.170454545454546 131 21 20
-23.390151515151516 27.329545454545453 -11.079545454545455 131 18 20
-15.511363636363637 19.94318181818182 -4.678030303030303 148 28 27
-58.10606060606061 17.973484848484848 1.7234848484848486 145 25 24
28.806818181818183 57.61363636363637 8.863636363636363 161 26 23
8.371212121212121 -22.897727272727273 5.170454545454546 128 22 22
-23.390151515151516 27.083333333333332 -11.079545454545455 132 19 21
-15.511363636363637 19.696969696969695 -4.678030303030303 148 28 27
-58.10606060606061 17.727272727272727 1.4772727272727273 144 26 24
28.806818181818183 57.61363636363637 8.863636363636363 161 26 23
8.371212121212121 -23.143939393939394 5.170454545454546 127 23 22
-23.390151515151516 26.83712121212121 -10.833333333333334 132 20 19
-15.511363636363637 19.450757575757574 -4.678030303030303 148 28 27
-58.10606060606061 17.481060606060606 1.4772727272727273 144 26 24
28.806818181818183 57.36742424242424 8.863636363636363 161 26 23
8.371212121212121 -23.390151515151516 5.170454545454546 127 23 24
-23.390151515151516 26.59090909090909 -10.833333333333334 133 21 20
-15.511363636363637 19.204545454545453 -4.678030303030303 148 28 27
-58.10606060606061 17.234848484848484 1.4772727272727273 145 27 25
28.806818181818183 57.121212121212125 8.863636363636363 162 27 24
8.371212121212121 -23.636363636363637 5.170454545454546 126 22 23
-23.390151515151516 26.34469696969697 -10.833333333333334 134 20 20
-15.511363636363637 18.958333333333332 -4.678030303030303 147 27 26
-57.859848484848484 16.988636363636363 1.231060606060606 145 27 25
28.806818181818183 56.875 8.863636363636363 162 27 24
8.371212121212121 -23.882575757575758 5.170454545454546 126 22 23
-23.636363636363637 26.34469696969697 -10.587121212121213 134 20 20
-15.511363636363637 18.71212121212121 -4.678030303030303 147 27 26
-57.859848484848484 16.742424242424242 1.231060606060606 141 25 25
28.560606060606062 56.62878787878788 8.863636363636363 163 28 25
8.371212121212121 -24.12878787878788 5.170454545454546 124 21 22
-23.636363636363637 26.098484848484848 -10.587121212121213 135 19 20
-16.00378787878788 18.71212121212121 -4.1856060606060606 147 27 26
-57.859848484848484 16.49621212121212 0.9848484848484849 141 25 25
28.31439393939394 56.38257575757576 9.109848484848484 163 28 25
8.125 -24.12878787878788 5.170454545454546 115 19 21
-23.636363636363637 25.852272727272727 -10.587121212121213 136 20 21
-16.00378787878788 18.46590909090909 -4.1856060606060606 147 27 26
-57.61363636363637 16.25 0.7386363636363636 141 25 25
28.31439393939394 56.38257575757576 9.109848484848484 163 28 25
8.125 -24.375 5.170454545454546 114 20 21
-23.636363636363637 25.606060606060606 -10.587121212121213 136 20 21
-16.00378787878788 18.21969696969697 -4.1856060606060606 147 27 26
-57.61363636363637 16.00378787878788 0.7386363636363636 140 24 24
28.31439393939394 56.13636363636364 9.109848484848484 163 28 25
8.125 -24.62121212121212 5.170454545454546 111 19 22
-23.636363636363637 25.359848484848484 -10.587121212121213 136 20 21
-16.00378787878788 17.973484848484848 -4.1856060606060606 147 27 26
-57.61363636363637 15.757575757575758 0.24621212121212122 139 25 24
28.31439393939394 55.890151515151516 9.109848484848484 163 28 25
-4.431818181818182 -35.70075757575758 19.94318181818182 49 49 57
-26.34469696969697 -9.848484848484848 -6.401515151515151 138 26 22
-16.00378787878788 17.727272727272727 -4.1856060606060606 147 27 26
-57.61363636363637 15.511363636363637 0.24621212121212122 139 25 24
28.06818181818182 55.6439393939394 9.356060606060606 162 27 24
-4.431818181818182 -35.946969696969695 19.94318181818182 34 35 40
-26.34469696969697 -10.09469696969697 -6.401515151515151 136 27 22
-16.00378787878788 17.481060606060606 -4.1856060606060606 147 27 26
-57.61363636363637 15.265151515151516 0.24621212121212122 138 24 23
28.06818181818182 55.39772727272727 9.356060606060606 162 27 24
-26.34469696969697 -10.340909090909092 -6.401515151515151 136 27 22
-4.431818181818182 -36.19318181818182 19.94318181818182 35 34 40
-16.00378787878788 17.481060606060606 -4.1856060606060606 147 27 26
-57.61363636363637 15.018939393939394 0.24621212121212122 138 24 23
28.31439393939394 55.151515151515156 9.109848484848484 162 27 24
-26.34469696969697 -10.587121212121213 -6.401515151515151 136 27 22
-4.431818181818182 -36.43939393939394 19.94318181818182 29 28 34
-16.00378787878788 17.234848484848484 -4.1856060606060606 147 27 26
-57.36742424242424 14.772727272727273 -0.24621212121212122 138 24 23
-26.59090909090909 -10.587121212121213 -6.15530303030303 136 27 22
28.31439393939394 55.151515151515156 9.109848484848484 161 27 24
-4.431818181818182 -36.68560606060606 19.696969696969695 28 27 32
-16.00378787878788 16.988636363636363 -4.1856060606060606 146 26 25
-57.36742424242424 14.526515151515152 -0.24621212121212122 137 23 22
-26.59090909090909 -10.833333333333334 -6.15530303030303 137 28 23
27.8219696969697 54.90530303030303 9.602272727272727 159 26 27
-4.431818181818182 -36.93181818181818 19.696969696969695 27 27 29
-57.36742424242424 14.280303030303031 -0.24621212121212122 136 24 22
-26.59090909090909 -11.079545454545455 -6.15530303030303 136 28 25
28.06818181818182 54.65909090909091 9.356060606060606 155 25 23
-4.431818181818182 -36.93181818181818 19.94318181818182 23 21 26
-57.121212121212125 14.03409090909091 -0.49242424242424243 136 24 23
28.31439393939394 54.41287878787879 9.109848484848484 158 29 24
-26.59090909090909 -11.325757575757576 -6.15530303030303 137 28 25
-4.431818181818182 -37.178030303030305 19.696969696969695 23 21 22
-56.875 13.787878787878789 -0.7386363636363636 135 23 22
28.31439393939394 54.166666666666664 9.109848484848484 156 24 19
-26.59090909090909 -11.571969696969697 -6.15530303030303 137 28 25
-4.431818181818182 -37.42424242424242 19.94318181818182 39 37 42
-57.121212121212125 13.541666666666666 -0.49242424242424243 134 22 21
28.31439393939394 53.92045454545455 9.109848484848484 164 29 25
-26.59090909090909 -11.818181818181818 -6.15530303030303 139 27 25
-4.431818181818182 -37.42424242424242 19.94318181818182 49 47 52
-56.875 13.295454545454545 -0.9848484848484849 131 21 20
28.31439393939394 53.92045454545455 9.109848484848484 168 29 26
-26.59090909090909 -11.818181818181818 -6.15530303030303 140 26 25
-4.431818181818182 -37.67045454545455 19.94318181818182 49 48 53
-16.00378787878788 16.742424242424242 -4.1856060606060606 146 26 25
-56.875 13.049242424242424 -0.9848484848484849 130 22 20
-26.59090909090909 -12.06439393939394 -6.15530303030303 141 25 25
28.31439393939394 53.67424242424242 9.109848484848484 169 24 27
-5.170454545454546 -37.67045454545455 20.681818181818183 68 67 73
-16.00378787878788 16.49621212121212 -4.1856060606060606 146 26 25
-56.62878787878788 12.556818181818182 -1.4772727272727273 127 23 20
-26.59090909090909 -12.31060606060606 -6.15530303030303 145 25 27
28.560606060606062 53.428030303030305 8.863636363636363 171 41 49
-5.170454545454546 -37.67045454545455 20.928030303030305 62 61 69
-16.00378787878788 16.25 -4.1856060606060606 146 26 25
-56.38257575757576 12.31060606060606 -1.7234848484848486 126 24 20
-26.59090909090909 -12.556818181818182 -6.15530303030303 147 24 27
31.022727272727273 37.916666666666664 6.6477272727272725 180 41 36
-5.170454545454546 -37.916666666666664 20.928030303030305 74 73 81
-16.25 16.25 -3.6931818181818183 145 25 24
-56.38257575757576 12.06439393939394 -1.9696969696969697 126 22 21
-26.59090909090909 -12.803030303030303 -6.15530303030303 148 23 27
31.022727272727273 37.67045454545455 6.6477272727272725 182 40 36
-5.662878787878788 -37.916666666666664 21.174242424242426 56 56 66
-16.00378787878788 15.757575757575758 -3.9393939393939394 145 25 24
-56.38257575757576 11.818181818181818 -1.9696969696969697 126 22 21
-26.59090909090909 -13.049242424242424 -6.15530303030303 148 23 27
30.776515151515152 37.67045454545455 6.8939393939393945 176 37 32
-5.662878787878788 -38.16287878787879 21.174242424242426 57 57 67
-16.25 15.757575757575758 -3.6931818181818183 146 24 21
-56.13636363636364 11.571969696969697 -2.462121212121212 126 22 21
-26.59090909090909 -13.295454545454545 -6.15530303030303 149 24 28
30.776515151515152 37.42424242424242 6.8939393939393945 173 34 29
-5.662878787878788 -38.16287878787879 21.174242424242426 67 70 79
-16.25 15.511363636363637 -3.6931818181818183 143 24 20
-55.890151515151516 11.325757575757576 -2.9545454545454546 125 21 20
-26.59090909090909 -13.541666666666666 -6.15530303030303 148 25 28
30.776515151515152 37.178030303030305 6.8939393939393945 168 30 27
-5.909090909090909 -38.40909090909091 21.420454545454547 59 62 71
-16.00378787878788 15.265151515151516 -3.9393939393939394 142 24 22
-55.890151515151516 11.079545454545455 -2.9545454545454546 125 21 20
-26.59090909090909 -13.787878787878789 -6.15530303030303 148 25 28
31.022727272727273 36.93181818181818 6.6477272727272725 165 30 26
-5.909090909090909 -38.40909090909091 21.666666666666668 49 52 61
-16.00378787878788 15.018939393939394 -3.9393939393939394 140 25 22
-55.6439393939394 10.587121212121213 -3.4469696969696972 123 21 19
-26.59090909090909 -14.03409090909091 -6.15530303030303 145 25 27
31.022727272727273 36.68560606060606 6.6477272727272725 163 28 25
-6.15530303030303 -38.40909090909091 21.91287878787879 51 54 63
-16.00378787878788 14.772727272727273 -3.9393939393939394 139 25 25
-55.6439393939394 10.587121212121213 -3.4469696969696972 124 22 20
30.776515151515152 36.43939393939394 6.8939393939393945 161 27 24
-26.59090909090909 -14.03409090909091 -6.15530303030303 143 24 26
-6.401515151515151 -38.65530303030303 22.15909090909091 51 54 63
-16.00378787878788 14.526515151515152 -3.9393939393939394 138 24 24
-55.151515151515156 10.09469696969697 -4.1856060606060606 123 21 19
30.776515151515152 36.43939393939394 6.8939393939393945 158 26 24
-26.59090909090909 -14.280303030303031 -6.15530303030303 140 24 25
-6.401515151515151 -38.65530303030303 22.15909090909091 48 51 60
-16.00378787878788 14.280303030303031 -3.9393939393939394 137 21 22
-54.65909090909091 9.602272727272727 -5.416666666666667 124 21 22
-26.83712121212121 -14.526515151515152 -5.909090909090909 137 23 23
30.776515151515152 36.19318181818182 6.8939393939393945 156 26 24
-6.401515151515151 -38.90151515151515 22.15909090909091 52 55 64
-16.00378787878788 14.03409090909091 -3.9393939393939394 135 21 21
-54.41287878787879 9.109848484848484 -5.909090909090909 124 21 22
-26.59090909090909 -14.772727272727273 -6.15530303030303 137 23 23
31.268939393939394 35.946969696969695 6.401515151515151 159 25 26
-6.6477272727272725 -38.90151515151515 22.40530303030303 50 53 62
-16.25 14.03409090909091 -3.6931818181818183 132 18 18
-53.67424242424242 8.617424242424242 -7.140151515151516 124 21 22
-26.59090909090909 -15.018939393939394 -6.15530303030303 132 20 19
31.268939393939394 35.70075757575758 6.401515151515151 157 24 25
-6.6477272727272725 -39.14772727272727 22.40530303030303 54 54 62
-16.25 13.787878787878789 -3.6931818181818183 129 19 20
-53.67424242424242 8.371212121212121 -7.386363636363637 124 21 22
-26.59090909090909 -16.00378787878788 -6.15530303030303 133 21 20
31.022727272727273 35.45454545454545 6.6477272727272725 153 23 23
-6.8939393939393945 -39.14772727272727 22.651515151515152 53 53 61
-16.00378787878788 13.295454545454545 -4.1856060606060606 114 18 19
-52.44318181818182 7.632575757575758 -9.356060606060606 135 19 22
-26.59090909090909 -16.25 -6.15530303030303 136 24 23
31.268939393939394 35.208333333333336 6.401515151515151 153 23 23
-7.140151515151516 -39.39393939393939 22.897727272727273 50 49 57
-16.00378787878788 13.295454545454545 -4.1856060606060606 102 17 20
-52.44318181818182 7.386363636363637 -9.602272727272727 133 22 28
-26.83712121212121 -16.25 -5.909090909090909 139 27 26
31.268939393939394 34.96212121212121 6.401515151515151 153 23 25
-7.140151515151516 -39.640151515151516 22.897727272727273 52 51 59
-15.757575757575758 12.803030303030303 -4.431818181818182 83 18 22
-52.196969696969695 7.140151515151516 -10.09469696969697 122 33 39
-26.59090909090909 -16.49621212121212 -6.15530303030303 141 27 27
31.268939393939394 34.71590909090909 6.401515151515151 152 24 25
-7.140151515151516 -39.640151515151516 23.143939393939394 62 59 68
-15.511363636363637 12.556818181818182 -4.678030303030303 61 14 20
-52.196969696969695 6.8939393939393945 -10.09469696969697 112 36 40
-26.83712121212121 -16.742424242424242 -5.909090909090909 143 27 28
31.268939393939394 34.71590909090909 6.401515151515151 150 22 23
-7.140151515151516 -39.88636363636364 23.143939393939394 53 50 59
-15.511363636363637 12.31060606060606 -4.678030303030303 46 13 20
-58.10606060606061 27.329545454545453 2.215909090909091 152 28 26
-26.83712121212121 -16.742424242424242 -5.416666666666667 143 27 28
31.268939393939394 34.46969696969697 6.401515151515151 150 22 23
-7.386363636363637 -39.88636363636364 23.390151515151516 28 27 33
-15.511363636363637 12.06439393939394 -4.678030303030303 38 15 23
-58.10606060606061 26.83712121212121 2.215909090909091 152 26 27
-26.83712121212121 -16.988636363636363 -5.416666666666667 143 27 28
31.268939393939394 34.22348484848485 6.401515151515151 149 23 24
-7.140151515151516 -40.13257575757576 23.143939393939394 32 27 34
-16.00378787878788 12.06439393939394 -4.1856060606060606 32 17 24
-58.10606060606061 26.59090909090909 2.215909090909091 154 26 25
-26.83712121212121 -17.234848484848484 -5.416666666666667 143 27 28
31.268939393939394 33.97727272727273 6.401515151515151 150 24 25
-7.140151515151516 -40.37878787878788 23.143939393939394 41 30 38
-16.00378787878788 11.818181818181818 -4.1856060606060606 29 19 28
-58.10606060606061 26.34469696969697 2.7083333333333335 156 26 28
31.515151515151516 33.73106060606061 6.15530303030303 148 24 24
-27.083333333333332 -17.481060606060606 -5.170454545454546 145 27 27
-7.386363636363637 -40.37878787878788 23.390151515151516 46 31 34
