ply
format ascii 1.0
comment Java E3D tool
element vertex 716
property double x
property double y
property double z
property uint8 red
property uint8 green
property uint8 blue
end_header
-24.43796562426018 -8.125 -8.350526636297053 154 30 28
-27.113313385934543 -35.45454545454545 -12.49194405295632 18 17 13
-39.584113612319484 33.23863636363637 -21.781394842899207 32 18 33
-36.79859854958274 -45.303030303030305 -6.615838715524385 96 49 3
-52.649751143022016 28.06818181818182 6.8003550442782315 147 20 14
-24.43796562426018 -8.125 -8.350526636297053 154 30 28
-27.44964599609375 -35.45454545454545 -12.582057028105766 27 23 22
-62.4411085880164 -45.05681818181818 -11.143608093261719 46 45 41
-52.43652459346887 27.8219696969697 6.677248983672171 144 17 11
-27.271764350659918 -35.946969696969695 -20.645188418301668 48 31 24
-28.335522738370027 -35.208333333333336 -12.63919194539388 36 35 31
-24.43796562426018 -8.371212121212121 -8.350526636297053 154 30 28
-62.10477597785719 -45.303030303030305 -11.05348760431463 42 41 37
-52.313418532862805 27.575757575757578 6.890475533225319 147 20 14
-29.00818795868845 -35.208333333333336 -12.819432923288057 37 36 34
-24.77429823441939 -8.617424242424242 -8.44064712524414 154 30 30
-27.60809696081913 -35.946969696969695 -20.735308907248758 49 25 21
-27.873724735144414 -31.761363636363637 -4.945386250813802 138 22 22
-52.10019198330966 27.329545454545453 6.767369472619259 148 21 15
-29.557747118400805 -35.208333333333336 -12.786447351629084 44 40 39
-24.77429823441939 -8.863636363636363 -8.44064712524414 154 30 30
-27.414286064379144 -32.25378787878788 -4.642039212313565 138 22 22
-51.64075331254439 27.083333333333332 7.070716511119496 150 18 14
-30.107306278113164 -35.208333333333336 -12.753461779970111 38 34 33
-24.89740429502545 -8.863636363636363 -8.653873674797289 154 30 30
-27.271764350659918 -36.19318181818182 -20.645188418301668 50 31 25
-27.75061867453835 -32.25378787878788 -4.732159701260653 135 21 20
-51.42752676299124 26.83712121212121 6.9476104505134355 152 18 15
-24.89740429502545 -9.109848484848484 -8.653873674797289 154 30 30
-30.44363888827237 -35.208333333333336 -12.8435822689172 33 29 28
-27.201059514825996 -32.746212121212125 -4.765145272919626 138 20 18
-53.7818550341057 27.083333333333332 6.316767027883818 181 43 40
-24.89740429502545 -9.356060606060606 -8.653873674797289 154 30 30
-30.107306278113164 -35.45454545454545 -12.753461779970111 31 27 28
-27.271764350659918 -36.43939393939394 -20.645188418301668 51 32 26
-27.201059514825996 -32.746212121212125 -4.765145272919626 140 22 20
-53.65874897349965 26.83712121212121 6.529993577436968 179 42 36
-30.566744948878434 -35.45454545454545 -13.056808818470348 23 21 22
-25.110630844578598 -9.356060606060606 -8.530767614191229 152 30 29
-27.414286064379144 -32.99242424242424 -4.642039212313565 142 24 22
-27.271764350659918 -36.68560606060606 -20.645188418301668 52 33 27
-53.65874897349965 26.59090909090909 6.529993577436968 178 41 35
-25.110630844578598 -9.602272727272727 -8.530767614191229 152 30 29
-30.566744948878434 -35.70075757575758 -13.056808818470348 23 21 22
-27.414286064379144 -33.23863636363637 -4.642039212313565 144 24 25
-53.65874897349965 26.34469696969697 6.529993577436968 178 41 35
-27.271764350659918 -36.93181818181818 -20.645188418301668 52 33 27
-30.566744948878434 -35.946969696969695 -13.056808818470348 21 21 21
-27.414286064379144 -33.23863636363637 -4.642039212313565 145 25 26
-53.7818550341057 26.34469696969697 6.316767027883818 176 41 35
-25.110630844578598 -9.848484848484848 -8.530767614191229 152 30 29
-27.75061867453835 -33.484848484848484 -4.732159701260653 142 22 24
-27.271764350659918 -37.178030303030305 -20.645188418301668 52 33 27
-30.566744948878434 -36.19318181818182 -13.056808818470348 22 20 21
-25.110630844578598 -10.09469696969697 -8.530767614191229 153 31 30
-53.99508158365885 26.098484848484848 6.439873088489879 172 37 31
-27.271764350659918 -37.178030303030305 -20.645188418301668 52 33 27
-30.44363888827237 -36.43939393939394 -12.8435822689172 21 19 20
-25.44696345473781 -10.09469696969697 -8.620888103138316 152 30 29
-53.7818550341057 26.098484848484848 6.316767027883818 172 39 32
-30.44363888827237 -36.68560606060606 -12.8435822689172 21 19 20
-25.44696345473781 -10.340909090909092 -8.620888103138316 152 30 29
-27.271764350659918 -37.42424242424242 -20.645188418301668 54 35 29
-53.99508158365885 25.852272727272727 6.439873088489879 171 38 31
-25.44696345473781 -10.587121212121213 -8.620888103138316 151 29 28
-30.566744948878434 -36.68560606060606 -13.056808818470348 21 19 20
-53.99508158365885 25.606060606060606 6.439873088489879 170 37 30
-27.271764350659918 -37.67045454545455 -20.645188418301668 54 35 29
-30.566744948878434 -36.93181818181818 -13.056808818470348 22 20 21
-25.78328103730173 -10.587121212121213 -8.711008592085404 151 29 28
-54.33141419381806 25.606060606060606 6.349752599542791 171 36 32
-62.12008158365885 16.742424242424242 -7.633034099232066 100 30 28
-53.99508158365885 25.359848484848484 6.439873088489879 170 37 30
-30.566744948878434 -37.178030303030305 -13.056808818470348 22 20 21
-25.78328103730173 -10.833333333333334 -8.711008592085404 151 29 28
-27.271764350659918 -37.916666666666664 -20.645188418301668 55 36 30
-62.12008158365885 16.49621212121212 -7.633034099232066 111 30 27
-25.78328103730173 -11.079545454545455 -8.711008592085404 151 29 28
-30.566744948878434 -37.42424242424242 -13.056808818470348 22 20 21
-27.60809696081913 -37.916666666666664 -20.735308907248758 53 32 27
-62.45641419381806 16.49621212121212 -7.723154588179155 106 25 22
-25.78328103730173 -11.325757575757576 -8.711008592085404 151 29 28
-27.60809696081913 -38.16287878787879 -20.735308907248758 54 33 28
-62.45641419381806 16.25 -7.723154588179155 117 24 19
-25.78328103730173 -11.325757575757576 -8.711008592085404 152 30 29
-27.60809696081913 -38.40909090909091 -20.735308907248758 55 34 29
-62.45641419381806 16.25 -7.723154588179155 124 24 22
-27.60809696081913 -38.65530303030303 -20.735308907248758 55 34 29
-26.119613647460938 -11.571969696969697 -8.801129081032492 152 30 29
-30.566744948878434 -37.42424242424242 -13.056808818470348 22 20 21
-62.45641419381806 16.00378787878788 -7.723154588179155 129 25 22
14.521781458999172 -20.928030303030305 10.379717855742484 184 51 42
-27.60809696081913 -38.65530303030303 -20.735308907248758 58 35 29
-62.45641419381806 15.757575757575758 -7.723154588179155 132 24 22
-30.566744948878434 -37.67045454545455 -13.056808818470348 24 20 21
14.185448848839963 -20.928030303030305 10.289597366795396 183 50 41
-62.45641419381806 15.757575757575758 -7.723154588179155 133 23 22
13.849116238680754 -21.174242424242426 10.199484391645951 181 48 41
-63.00597335353042 15.511363636363637 -7.690169016520183 132 22 23
-27.60809696081913 -38.90151515151515 -20.735308907248758 57 29 25
-63.00597335353042 15.511363636363637 -7.690169016520183 131 19 18
14.185448848839963 -21.420454545454547 10.289597366795396 180 47 40
-63.00597335353042 15.265151515151516 -7.690169016520183 138 26 24
-27.60809696081913 -39.14772727272727 -20.735308907248758 58 30 26
13.512783628521543 -21.420454545454547 10.109363902698863 178 45 38
-63.00597335353042 15.018939393939394 -7.690169016520183 137 25 23
-27.60809696081913 -39.39393939393939 -20.735308907248758 57 32 27
-30.779971498431582 -37.67045454545455 -12.933702757864287 25 21 22
13.849116238680754 -21.91287878787879 10.199484391645951 177 44 37
-62.66964074337121 14.772727272727273 -7.600048527573095 134 25 20
-27.60809696081913 -39.640151515151516 -20.735308907248758 57 34 28
-30.779971498431582 -37.916666666666664 -12.933702757864287 25 21 22
13.512783628521543 -21.91287878787879 10.109363902698863 176 43 36
-63.00597335353042 14.772727272727273 -7.690169016520183 137 23 22
-30.779971498431582 -38.16287878787879 -12.933702757864287 25 21 22
13.849116238680754 -22.15909090909091 10.199484391645951 177 44 37
-63.00597335353042 14.526515151515152 -7.690169016520183 138 22 22
-30.779971498431582 -38.40909090909091 -12.933702757864287 25 21 22
-27.60809696081913 -39.88636363636364 -20.735308907248758 56 36 29
13.512783628521543 -22.40530303030303 10.109363902698863 174 41 36
-63.00597335353042 14.526515151515152 -7.690169016520183 140 22 22
-26.119613647460938 -11.818181818181818 -8.801129081032492 152 30 29
-27.60809696081913 -39.88636363636364 -20.735308907248758 56 36 27
13.512783628521543 -22.651515151515152 10.109363902698863 174 41 36
-63.00597335353042 14.280303030303031 -7.690169016520183 141 21 22
-27.60809696081913 -40.13257575757576 -20.735308907248758 55 37 27
-26.119613647460938 -11.818181818181818 -8.801129081032492 152 30 29
13.512783628521543 -22.897727272727273 10.109363902698863 174 41 36
-27.60809696081913 -40.37878787878788 -20.735308907248758 55 37 25
-26.119613647460938 -12.06439393939394 -8.801129081032492 153 29 29
13.176451018362334 -22.897727272727273 10.019243413751775 172 39 34
-27.60809696081913 -40.625 -20.735308907248758 57 39 27
-26.332840197014086 -12.31060606060606 -8.678023020426432 153 29 29
13.176451018362334 -23.143939393939394 10.019243413751775 171 38 33
-63.34230596368963 14.280303030303031 -7.7802895054672705 137 18 24
-26.332840197014086 -12.556818181818182 -8.678023020426432 153 29 29
-27.60809696081913 -40.871212121212125 -20.735308907248758 56 36 25
12.840118408203125 -23.390151515151516 9.929130438602332 169 36 31
-63.34230596368963 14.03409090909091 -7.7802895054672705 137 23 23
-26.332840197014086 -12.556818181818182 -8.678023020426432 153 29 29
-27.60809696081913 -41.11742424242424 -20.735308907248758 60 38 27
13.176451018362334 -23.636363636363637 10.019243413751775 169 36 31
-26.669172807173297 -12.803030303030303 -8.76814350937352 152 28 30
-63.34230596368963 13.787878787878789 -7.7802895054672705 136 24 23
-27.60809696081913 -41.11742424242424 -20.735308907248758 67 40 29
13.176451018362334 -23.882575757575758 10.019243413751775 169 36 31
-26.669172807173297 -13.049242424242424 -8.76814350937352 153 29 31
-63.00597335353042 13.541666666666666 -7.690169016520183 137 23 22
-53.7818550341057 25.113636363636363 6.316767027883818 170 37 30
-63.00597335353042 13.541666666666666 -7.690169016520183 135 23 21
12.840118408203125 -23.882575757575758 9.929130438602332 163 33 31
-26.669172807173297 -13.049242424242424 -8.76814350937352 154 30 32
-53.7818550341057 25.113636363636363 6.316767027883818 170 37 30
12.503785798043916 -24.12878787878788 9.839009949655244 163 33 33
-53.99508158365885 24.867424242424242 6.439873088489879 169 36 29
-26.669172807173297 -13.295454545454545 -8.76814350937352 153 30 32
-53.99508158365885 24.62121212121212 6.439873088489879 169 36 31
-63.00597335353042 13.295454545454545 -7.690169016520183 133 24 21
12.503785798043916 -24.375 9.839009949655244 161 33 32
-54.33141419381806 24.62121212121212 6.349752599542791 168 36 31
-63.34230596368963 13.295454545454545 -7.7802895054672705 129 27 22
12.503785798043916 -24.62121212121212 9.839009949655244 160 32 31
-53.99508158365885 24.375 6.439873088489879 164 35 29
-63.34230596368963 13.049242424242424 -7.7802895054672705 127 28 23
12.840118408203125 -24.867424242424242 9.929130438602332 160 30 28
-27.005505417332504 -13.541666666666666 -8.85826399832061 153 33 34
-63.34230596368963 12.803030303030303 -7.7802895054672705 124 31 26
12.503785798043916 -24.867424242424242 9.839009949655244 158 30 29
-27.005505417332504 -13.787878787878789 -8.85826399832061 149 31 31
-63.34230596368963 12.803030303030303 -7.7802895054672705 122 34 30
12.503785798043916 -25.113636363636363 9.839009949655244 157 29 30
-27.005505417332504 -13.787878787878789 -8.85826399832061 147 29 29
-27.75061867453835 -33.73106060606061 -4.732159701260653 140 24 25
-63.34230596368963 12.556818181818182 -7.7802895054672705 102 25 19
-27.005505417332504 -14.03409090909091 -8.85826399832061 140 30 29
12.503785798043916 -25.359848484848484 9.839009949655244 155 29 30
-54.33141419381806 24.12878787878788 6.349752599542791 162 35 28
-62.12008158365885 12.06439393939394 -7.633034099232066 29 11 0
-27.005505417332504 -14.280303030303031 -8.85826399832061 142 44 43
12.503785798043916 -25.606060606060606 9.839009949655244 154 28 29
-27.75061867453835 -33.73106060606061 -4.732159701260653 134 21 23
-54.33141419381806 24.12878787878788 6.349752599542791 161 34 28
-61.9969755230528 11.818181818181818 -7.419807549678918 29 26 11
12.503785798043916 -25.852272727272727 9.839009949655244 153 29 29
-27.414286064379144 -34.22348484848485 -4.642039212313565 132 26 26
-54.33141419381806 23.882575757575758 6.349752599542791 160 33 27
-62.12008158365885 11.818181818181818 -7.633034099232066 34 28 14
12.503785798043916 -26.098484848484848 9.839009949655244 153 27 30
-27.414286064379144 -34.22348484848485 -4.642039212313565 124 26 27
-16.728208137281012 -35.946969696969695 15.344061418013139 47 44 55
-62.12008158365885 11.571969696969697 -7.633034099232066 36 30 18
12.503785798043916 -26.34469696969697 9.839009949655244 150 26 28
-27.005505417332504 -14.526515151515152 -8.85826399832061 100 10 9
-16.728208137281012 -36.19318181818182 15.344061418013139 41 38 47
-27.201059514825996 -34.71590909090909 -4.765145272919626 118 27 26
-61.78374897349965 11.325757575757576 -7.5429136102849785 42 29 21
12.503785798043916 -26.59090909090909 9.839009949655244 149 25 27
-27.005505417332504 -14.772727272727273 -8.85826399832061 78 0 0
-16.728208137281012 -36.19318181818182 15.344061418013139 41 35 45
-27.414286064379144 -34.71590909090909 -4.642039212313565 114 30 28
-61.78374897349965 11.079545454545455 -7.5429136102849785 43 28 21
12.503785798043916 -26.83712121212121 9.839009949655244 148 24 26
-16.728208137281012 -36.43939393939394 15.344061418013139 44 39 45
-27.414286064379144 -34.96212121212121 -4.642039212313565 89 24 20
-61.78374897349965 11.079545454545455 -7.5429136102849785 40 30 21
12.503785798043916 -26.83712121212121 9.839009949655244 147 22 26
-26.528394294507574 -35.45454545454545 -4.58490429502545 39 2 0
-16.728208137281012 -36.68560606060606 15.344061418013139 46 39 46
-61.44741636334044 10.833333333333334 -7.452793121337891 41 34 24
12.503785798043916 -27.083333333333332 9.839009949655244 145 22 25
-27.341838027491715 -15.265151515151516 -8.948384487267697 133 23 22
-26.96778615315755 -41.11742424242424 6.472227501146722 65 58 66
-61.78374897349965 10.587121212121213 -7.5429136102849785 42 34 23
-16.728208137281012 -36.93181818181818 15.344061418013139 44 38 40
-26.96778615315755 -41.11742424242424 6.472227501146722 55 45 53
-61.44741636334044 10.340909090909092 -7.452793121337891 39 32 22
-16.728208137281012 -36.93181818181818 15.344061418013139 46 40 42
-61.11108375318123 10.340909090909092 -7.362672632390803 39 30 21
-26.96778615315755 -41.36363636363637 6.472227501146722 46 35 41
-61.11108375318123 10.09469696969697 -7.362672632390803 39 30 21
-16.941434686834164 -37.178030303030305 15.4671674786192 46 40 40
-26.96778615315755 -41.609848484848484 6.472227501146722 57 41 44
-61.44741636334044 9.848484848484848 -7.452793121337891 40 33 25
-26.96778615315755 -41.85606060606061 6.472227501146722 68 44 44
-61.11108375318123 9.602272727272727 -7.362672632390803 39 30 21
-27.1810127027107 -41.85606060606061 6.595333561752782 80 51 47
-16.941434686834164 -37.42424242424242 15.4671674786192 36 28 26
-61.11108375318123 9.602272727272727 -7.362672632390803 41 32 23
-26.528394294507574 -35.70075757575758 -4.58490429502545 29 8 3
-27.1810127027107 -42.10227272727273 6.595333561752782 85 51 41
-61.11108375318123 9.356060606060606 -7.362672632390803 41 32 23
-16.941434686834164 -37.42424242424242 15.4671674786192 12 7 4
-27.1810127027107 -42.34848484848485 6.595333561752782 87 45 29
-30.990823687929097 -35.208333333333336 -5.420130527380741 66 59 66
-61.11108375318123 9.109848484848484 -7.362672632390803 42 33 24
-27.1810127027107 -42.34848484848485 6.595333561752782 98 53 32
-61.11108375318123 9.109848484848484 -7.362672632390803 42 33 24
-27.640451373475972 -42.59469696969697 6.291986523252545 105 59 35
-30.990823687929097 -35.45454545454545 -5.420130527380741 56 51 57
-26.96778615315755 -45.303030303030305 6.472227501146722 159 79 26
-61.11108375318123 8.863636363636363 -7.362672632390803 43 33 23
-31.204050237482246 -35.45454545454545 -5.297024466774681 58 56 61
-16.941434686834164 -37.67045454545455 15.4671674786192 84 81 76
-27.1810127027107 -45.54924242424242 6.595333561752782 163 83 12
-61.11108375318123 8.617424242424242 -7.362672632390803 42 32 22
-31.204050237482246 -35.70075757575758 -5.297024466774681 35 33 38
-39.5923036517519 -44.81060606060606 3.8104571718158144 104 65 22
-17.400873357599433 -37.67045454545455 15.163827953916607 122 121 117
-61.11108375318123 8.617424242424242 -7.362672632390803 40 30 18
-39.25597104159269 -45.303030303030305 3.9005701469652583 97 62 30
-30.990823687929097 -35.946969696969695 -5.420130527380741 40 38 41
-18.40987118807706 -38.16287878787879 14.893466487075344 63 72 77
-61.11108375318123 8.371212121212121 -7.362672632390803 39 29 17
-51.75739750717626 32.746212121212125 1.4520338809851445 162 33 27
-30.990823687929097 -36.19318181818182 -5.420130527380741 32 32 34
-18.40987118807706 -38.40909090909091 14.893466487075344 51 58 64
-52.30695666688862 32.5 1.485019452644117 163 34 28
-25.4116035230232 -31.761363636363637 -0.680862773548473 159 30 25
-30.990823687929097 -36.43939393939394 -5.420130527380741 27 27 27
-18.40987118807706 -38.65530303030303 14.893466487075344 45 46 51
-52.43006272749467 32.25378787878788 1.2717929030909683 164 35 29
12.503785798043916 -27.329545454545453 9.839009949655244 141 21 23
-52.64328927704782 32.25378787878788 1.3948989636970288 165 36 30
-25.19837697347005 -32.00757575757576 -0.8039688341545336 154 27 21
-31.540382847641453 -36.43939393939394 -5.3871449557217685 19 19 19
-52.97962188720703 32.00757575757576 1.304778474749941 168 37 29
-24.862044363310844 -32.5 -0.7138483452074456 148 14 15
12.503785798043916 -27.575757575757578 9.839009949655244 140 21 25
-24.862044363310844 -32.5 -0.7138483452074456 148 13 19
12.503785798043916 -27.8219696969697 9.839009949655244 137 21 24
-24.862044363310844 -32.746212121212125 -0.7138483452074456 157 22 29
12.503785798043916 -28.06818181818182 9.839009949655244 136 21 26
-25.19837697347005 -32.99242424242424 -0.8039688341545336 165 30 36
-52.97962188720703 31.761363636363637 1.304778474749941 168 37 29
-30.990823687929097 -36.68560606060606 -5.420130527380741 29 25 26
12.503785798043916 -28.31439393939394 9.839009949655244 134 21 25
-24.862044363310844 -33.23863636363637 -0.7138483452074456 161 33 34
-53.102727947813094 31.761363636363637 1.0915519251967922 171 38 33
-30.990823687929097 -36.93181818181818 -5.420130527380741 30 24 26
11.617909055767637 -28.31439393939394 9.781875032367129 127 18 21
-25.4116035230232 -33.23863636363637 -0.680862773548473 164 32 30
11.617909055767637 -28.560606060606062 9.781875032367129 125 19 21
-30.990823687929097 -37.178030303030305 -5.420130527380741 29 23 25
-25.4116035230232 -33.484848484848484 -0.680862773548473 165 31 28
11.954241665926848 -28.806818181818183 9.871995521314217 125 21 22
-30.990823687929097 -37.42424242424242 -5.420130527380741 29 23 25
-27.60809696081913 -41.36363636363637 -20.735308907248758 67 39 28
-53.31595449736624 31.515151515151516 1.2146579858028528 171 36 32
-30.990823687929097 -37.42424242424242 -5.420130527380741 30 21 24
11.954241665926848 -29.053030303030305 9.871995521314217 123 20 21
-27.60809696081913 -41.609848484848484 -20.735308907248758 61 31 21
-53.439060557972304 31.515151515151516 1.001431436249704 173 38 34
11.954241665926848 -29.299242424242426 9.871995521314217 121 21 21
-27.60809696081913 -41.85606060606061 -20.735308907248758 58 25 16
-53.65228710752545 31.268939393939394 1.1245374968557647 175 42 35
11.954241665926848 -29.545454545454547 9.871995521314217 120 22 23
-27.60809696081913 -42.10227272727273 -20.735308907248758 64 25 10
-53.65228710752545 31.022727272727273 1.1245374968557647 169 38 30
-30.990823687929097 -37.67045454545455 -5.420130527380741 28 22 24
11.954241665926848 -29.791666666666668 9.871995521314217 119 21 22
-27.60809696081913 -42.10227272727273 -20.735308907248758 89 35 9
-53.65228710752545 31.022727272727273 1.1245374968557647 160 29 21
-31.204050237482246 -37.67045454545455 -5.297024466774681 26 20 20
12.503785798043916 -30.03787878787879 9.839009949655244 120 20 22
-25.163663228352863 -45.303030303030305 -20.44079809477835 135 79 46
-53.439060557972304 30.776515151515152 1.001431436249704 152 23 17
12.503785798043916 -30.28409090909091 9.839009949655244 119 21 22
-25.499995838512074 -45.303030303030305 -20.530918583725438 138 70 31
-53.439060557972304 30.53030303030303 1.001431436249704 145 16 10
12.503785798043916 -30.53030303030303 9.839009949655244 118 20 21
-26.049539970629144 -45.303030303030305 -20.497933012066465 137 63 16
-53.65228710752545 30.53030303030303 1.1245374968557647 148 20 11
-31.204050237482246 -37.916666666666664 -5.297024466774681 26 20 20
12.503785798043916 -30.776515151515152 9.839009949655244 118 20 21
-26.38587258078835 -45.54924242424242 -20.588053501013555 143 71 21
-53.65228710752545 30.28409090909091 1.1245374968557647 151 23 14
-30.779971498431582 -38.65530303030303 -12.933702757864287 25 21 22
-31.204050237482246 -38.16287878787879 -5.297024466774681 24 18 18
-54.997602520567 29.791666666666668 0.7640555410674125 182 47 41
-26.722205190947562 -45.303030303030305 -20.67817398996064 140 73 21
-30.990823687929097 -38.40909090909091 -5.420130527380741 26 17 18
-30.779971498431582 -38.65530303030303 -12.933702757864287 23 21 24
-54.997602520567 29.545454545454547 0.7640555410674125 183 46 40
-27.271764350659918 -45.303030303030305 -20.645188418301668 142 72 21
-31.204050237482246 -38.65530303030303 -5.297024466774681 28 22 22
-55.33393513072621 29.545454545454547 0.6739350521203243 179 45 36
-27.94442957097834 -45.303030303030305 -20.825429396195844 147 74 23
-28.493988730690695 -45.303030303030305 -20.79244382453687 148 75 20
-55.33393513072621 29.299242424242426 0.6739350521203243 179 45 36
-31.540382847641453 -38.65530303030303 -5.3871449557217685 28 22 22
-28.493988730690695 -45.54924242424242 -20.79244382453687 148 75 20
-55.33393513072621 29.299242424242426 0.6739350521203243 178 45 36
-30.779971498431582 -38.90151515151515 -12.933702757864287 23 21 24
-31.540382847641453 -38.90151515151515 -5.3871449557217685 27 21 21
-29.379880500562265 -45.303030303030305 -20.84957874182499 152 79 24
-55.33393513072621 29.053030303030305 0.6739350521203243 178 45 36
-30.779971498431582 -39.14772727272727 -12.933702757864287 25 21 22
-31.204050237482246 -39.14772727272727 -5.297024466774681 28 20 18
-29.92943966027462 -45.303030303030305 -20.816593170166016 154 82 24
-56.006600351044625 28.806818181818183 0.4936940742261482 178 45 36
-30.566744948878434 -39.39393939393939 -13.056808818470348 26 22 23
-31.204050237482246 -39.39393939393939 -5.297024466774681 28 20 18
-30.052545720880683 -45.303030303030305 -21.029819719719164 158 83 25
-56.006600351044625 28.806818181818183 0.4936940742261482 178 45 36
-31.540382847641453 -39.39393939393939 -5.3871449557217685 26 22 19
-30.566744948878434 -39.640151515151516 -13.056808818470348 27 21 21
-30.60210488059304 -45.303030303030305 -20.99683414806019 162 87 22
-56.006600351044625 28.560606060606062 0.4936940742261482 178 45 36
-31.204050237482246 -39.640151515151516 -5.297024466774681 25 21 18
-30.566744948878434 -39.88636363636364 -13.056808818470348 28 22 22
-31.48799665046461 -45.303030303030305 -21.05396906534831 168 93 26
-56.006600351044625 28.560606060606062 0.4936940742261482 178 45 36
-31.204050237482246 -39.88636363636364 -5.297024466774681 25 24 19
-30.566744948878434 -40.13257575757576 -13.056808818470348 28 22 24
12.503785798043916 -31.022727272727273 9.839009949655244 114 18 20
-30.566744948878434 -40.13257575757576 -13.056808818470348 27 22 26
-32.03755581017697 -45.05681818181818 -21.020983493689336 174 99 31
-56.342932961203836 28.31439393939394 0.4035735852790601 179 46 37
12.503785798043916 -31.268939393939394 9.839009949655244 114 18 20
-30.566744948878434 -40.37878787878788 -13.056808818470348 25 23 28
-33.596097772771664 -45.303030303030305 -21.25834436127634 91 44 2
12.503785798043916 -31.268939393939394 9.839009949655244 114 18 22
12.503785798043916 -31.515151515151516 9.839009949655244 114 18 22
-33.25976516261245 -45.54924242424242 -21.16823889992454 83 39 0
11.954241665926848 -31.761363636363637 9.871995521314217 113 18 22
-59.44300564852628 -45.54924242424242 -23.678012616706617 28 21 15
-56.342932961203836 28.06818181818182 0.4035735852790601 179 46 37
-30.779971498431582 -40.625 -12.933702757864287 24 23 29
11.954241665926848 -32.00757575757576 9.871995521314217 112 17 21
-56.342932961203836 28.06818181818182 0.4035735852790601 179 46 37
-59.566119222929984 -45.54924242424242 -23.891239166259766 31 23 12
-30.566744948878434 -40.871212121212125 -13.056808818470348 24 23 29
11.954241665926848 -32.25378787878788 9.871995521314217 112 17 21
-56.67926557136305 27.8219696969697 0.31345309633197205 179 46 37
-59.566119222929984 -45.79545454545455 -23.891239166259766 52 44 31
-30.566744948878434 -41.11742424242424 -13.056808818470348 25 23 28
11.954241665926848 -32.5 9.871995521314217 110 18 21
-56.67926557136305 27.575757575757578 0.31345309633197205 179 46 37
-37.44301189075817 38.40909090909091 -21.02744535966353 25 24 42
-30.566744948878434 -41.11742424242424 -13.056808818470348 27 22 26
12.503785798043916 -32.746212121212125 9.839009949655244 109 18 23
-56.67926557136305 27.575757575757578 0.31345309633197205 180 47 38
-37.779344500917375 37.916666666666664 -21.117565848610617 26 23 40
-30.566744948878434 -41.36363636363637 -13.056808818470348 32 23 24
12.503785798043916 -32.99242424242424 9.839009949655244 108 19 23
-25.4116035230232 -33.484848484848484 -0.680862773548473 158 26 21
-37.90245056152344 37.67045454545455 -21.330792398163766 26 22 37
-56.892492120916195 27.329545454545453 0.43655915693803266 178 45 36
-30.566744948878434 -41.609848484848484 -13.056808818470348 35 24 22
-25.19837697347005 -33.97727272727273 -0.8039688341545336 163 28 24
-30.566744948878434 -41.85606060606061 -13.056808818470348 41 24 17
-57.01559818152226 27.329545454545453 0.2233401211825284 179 46 37
-25.19837697347005 -33.97727272727273 -0.8039688341545336 157 28 23
-30.566744948878434 -42.10227272727273 -13.056808818470348 54 26 12
-56.67926557136305 27.083333333333332 0.31345309633197205 179 48 38
-25.4116035230232 -34.22348484848485 -0.680862773548473 145 30 25
-38.4520097212358 37.42424242424242 -21.297806826504793 24 20 34
-30.566744948878434 -42.10227272727273 -13.056808818470348 66 30 8
-57.228824731075406 26.83712121212121 0.34644618178858905 178 48 35
-38.4520097212358 36.93181818181818 -21.297806826504793 22 19 30
-25.19837697347005 -34.46969696969697 -0.8039688341545336 145 43 41
-30.566744948878434 -42.34848484848485 -13.056808818470348 90 46 21
-57.01559818152226 26.83712121212121 0.2233401211825284 179 49 36
-38.665236270788945 36.68560606060606 -21.174700765898734 22 18 32
-25.19837697347005 -34.71590909090909 -0.8039688341545336 116 32 30
-57.35193079168146 26.59090909090909 0.13321963223544034 179 49 36
-38.665236270788945 36.43939393939394 -21.174700765898734 22 18 32
-25.4116035230232 -34.71590909090909 -0.680862773548473 78 7 3
-39.001568880948156 36.19318181818182 -21.26482125484582 23 20 31
-57.35193079168146 26.59090909090909 0.13321963223544034 179 49 36
-25.19837697347005 -35.45454545454545 -0.8039688341545336 61 49 53
-28.335522738370027 -45.303030303030305 -12.63919194539388 145 73 25
-18.286765127471 -38.90151515151515 15.106693036628492 44 42 47
-39.001568880948156 35.70075757575758 -21.26482125484582 24 21 32
-25.19837697347005 -35.70075757575758 -0.8039688341545336 72 61 67
-28.335522738370027 -45.303030303030305 -12.63919194539388 146 72 23
-18.286765127471 -39.14772727272727 15.106693036628492 50 39 45
-24.862044363310844 -35.946969696969695 -0.7138483452074456 48 41 48
-39.214795430501304 35.70075757575758 -21.14171519423976 24 21 32
-24.525711753151633 -36.19318181818182 -0.623735370058002 40 35 41
-18.40987118807706 -39.14772727272727 14.893466487075344 56 41 44
-24.73893830270478 -36.43939393939394 -0.5006293094519413 35 30 36
-18.40987118807706 -39.39393939393939 14.893466487075344 62 43 45
-28.67185534852924 -45.303030303030305 -12.729312434340969 141 69 19
-24.862044363310844 -36.43939393939394 -0.7138483452074456 28 26 31
-39.214795430501304 35.45454545454545 -21.14171519423976 24 21 32
-29.221414508241597 -45.303030303030305 -12.696326862681996 144 71 20
-24.189379142992426 -36.93181818181818 -0.5336148811109138 29 27 32
-18.40987118807706 -39.640151515151516 14.893466487075344 63 43 42
-39.214795430501304 34.96212121212121 -21.14171519423976 23 20 31
-29.894079728560015 -45.303030303030305 -12.876567840576172 144 71 18
-24.189379142992426 -37.178030303030305 -0.5336148811109138 27 25 30
-18.74620379823627 -39.640151515151516 14.803345998128256 63 42 41
-30.44363888827237 -45.303030303030305 -12.8435822689172 149 73 24
-23.853046532833215 -37.42424242424242 -0.44349439216382575 26 24 27
-18.40987118807706 -39.88636363636364 14.893466487075344 63 42 37
-30.779971498431582 -45.303030303030305 -12.933702757864287 150 74 25
-23.853046532833215 -37.67045454545455 -0.44349439216382575 28 26 29
-39.214795430501304 34.96212121212121 -21.14171519423976 23 20 31
-18.74620379823627 -40.13257575757576 14.803345998128256 66 43 37
-31.116304108590793 -45.303030303030305 -13.023823246811375 152 76 26
-27.341838027491715 -15.511363636363637 -8.948384487267697 150 30 32
-18.74620379823627 -40.37878787878788 14.803345998128256 68 45 37
-23.853046532833215 -37.916666666666664 -0.44349439216382575 31 27 28
-39.33790149110736 34.71590909090909 -21.35494174379291 23 20 29
-27.005505417332504 -15.757575757575758 -8.85826399832061 153 29 31
-24.189379142992426 -37.916666666666664 -0.5336148811109138 29 25 26
-18.74620379823627 -40.37878787878788 14.803345998128256 69 46 38
-39.33790149110736 34.22348484848485 -21.35494174379291 26 23 32
-27.341838027491715 -15.757575757575758 -8.948384487267697 155 31 33
-39.33790149110736 33.97727272727273 -21.35494174379291 24 22 33
-27.678170637650922 -16.00378787878788 -9.038504976214785 152 34 34
-39.67423410126657 33.73106060606061 -21.445062232739996 29 21 36
-27.678170637650922 -16.25 -9.038504976214785 153 35 33
-23.853046532833215 -38.16287878787879 -0.44349439216382575 29 23 23
-39.67423410126657 33.484848484848484 -21.445062232739996 28 19 36
-27.678170637650922 -16.25 -9.038504976214785 152 34 32
-18.74620379823627 -40.625 14.803345998128256 68 45 37
-23.853046532833215 -38.40909090909091 -0.44349439216382575 29 25 24
-39.67423410126657 33.484848484848484 -21.445062232739996 27 19 34
-27.678170637650922 -16.49621212121212 -9.038504976214785 154 32 31
-18.74620379823627 -40.871212121212125 14.803345998128256 76 49 40
-24.189379142992426 -38.65530303030303 -0.5336148811109138 28 24 25
-27.891397187204074 -16.742424242424242 -8.915398915608725 157 27 29
-39.67423410126657 32.25378787878788 -21.445062232739996 30 16 13
-24.189379142992426 -38.65530303030303 -0.5336148811109138 25 23 24
-27.891397187204074 -16.988636363636363 -8.915398915608725 157 27 29
-39.67423410126657 32.00757575757576 -21.445062232739996 37 16 11
-24.73893830270478 -38.65530303030303 -0.5006293094519413 25 23 26
-27.891397187204074 -16.988636363636363 -8.915398915608725 154 30 30
-39.67423410126657 31.761363636363637 -21.445062232739996 52 19 14
-18.74620379823627 -41.11742424242424 14.803345998128256 79 52 41
-57.68826340184067 26.34469696969697 0.04309914328835227 178 47 37
-28.22772979736328 -17.234848484848484 -9.005519404555812 148 28 27
-24.189379142992426 -39.14772727272727 -0.5336148811109138 25 23 26
-39.67423410126657 31.761363636363637 -21.445062232739996 70 25 19
-18.74620379823627 -41.11742424242424 14.803345998128256 76 46 36
-57.68826340184067 26.098484848484848 0.04309914328835227 177 46 36
-24.189379142992426 -39.39393939393939 -0.5336148811109138 26 24 27
-27.891397187204074 -17.481060606060606 -8.915398915608725 152 30 29
-18.74620379823627 -41.36363636363637 14.803345998128256 74 42 29
-57.68826340184067 26.098484848484848 0.04309914328835227 177 46 36
-24.189379142992426 -39.640151515151516 -0.5336148811109138 25 23 26
-27.891397187204074 -17.727272727272727 -8.915398915608725 152 30 29
-18.74620379823627 -41.609848484848484 14.803345998128256 108 75 60
-57.68826340184067 25.852272727272727 0.04309914328835227 176 45 35
-24.525711753151633 -39.640151515151516 -0.623735370058002 23 21 24
-39.67423410126657 31.515151515151516 -21.445062232739996 89 30 24
-28.22772979736328 -17.727272727272727 -9.005519404555812 148 28 27
-19.29574793035334 -41.609848484848484 14.836331569787228 114 79 60
-24.862044363310844 -39.640151515151516 -0.7138483452074456 19 17 20
-57.90148995139382 25.606060606060606 0.16620520389441287 177 46 36
-39.67423410126657 31.268939393939394 -21.445062232739996 103 32 28
-28.564062407522492 -17.973484848484848 -9.0956398935029 144 26 26
-19.632080540512547 -41.609848484848484 14.74621108084014 115 78 59
-25.19837697347005 -39.640151515151516 -0.8039688341545336 25 23 26
-58.02459601199988 25.606060606060606 -0.047021345658735794 177 46 36
-28.564062407522492 -17.973484848484848 -9.0956398935029 144 26 26
-39.67423410126657 31.022727272727273 -21.445062232739996 119 35 33
-21.650076201467805 -41.85606060606061 14.205488147157611 121 81 55
-25.74793613318241 -39.640151515151516 -0.770983262495561 53 53 55
-57.90148995139382 25.359848484848484 0.16620520389441287 175 47 38
-28.564062407522492 -18.21969696969697 -9.0956398935029 142 26 26
-39.88744562322443 31.022727272727273 -21.321956172133937 109 31 29
-22.99540664210464 -45.303030303030305 13.845013705166904 172 104 31
-25.74793613318241 -39.88636363636364 -0.770983262495561 72 71 76
-58.02459601199988 25.359848484848484 -0.047021345658735794 175 47 38
-28.564062407522492 -18.46590909090909 -9.0956398935029 141 25 25
-39.88744562322443 30.776515151515152 -21.321956172133937 119 27 28
-40.78801935369318 -45.05681818181818 9.618217005874172 100 43 16
-26.420601353500828 -39.640151515151516 -0.9512242403897372 78 77 82
12.503785798043916 -33.23863636363637 9.839009949655244 106 20 23
-27.979158343690816 -39.640151515151516 -1.1886001355720288 66 65 70
-40.328580682927914 -45.303030303030305 9.921564044374408 99 44 14
-58.02459601199988 25.113636363636363 -0.047021345658735794 174 46 37
-27.979158343690816 -39.88636363636364 -1.1886001355720288 63 62 67
12.503785798043916 -33.484848484848484 9.839009949655244 104 19 22
-45.46367529666785 56.62878787878788 8.906096834124941 168 35 26
-27.979158343690816 -39.88636363636364 -1.1886001355720288 57 56 61
12.503785798043916 -33.73106060606061 9.839009949655244 103 18 21
-27.979158343690816 -40.13257575757576 -1.1886001355720288 61 61 63
-45.46367529666785 56.62878787878788 8.906096834124941 164 30 21
12.503785798043916 -33.73106060606061 9.839009949655244 100 18 20
-58.23782256155303 24.867424242424242 0.07608471494732481 174 46 37
-27.979158343690816 -40.13257575757576 -1.1886001355720288 55 55 57
-45.46367529666785 56.38257575757576 8.906096834124941 170 33 27
12.503785798043916 -33.97727272727273 9.839009949655244 101 16 19
-58.23782256155303 24.867424242424242 0.07608471494732481 174 46 37
-27.979158343690816 -40.37878787878788 -1.1886001355720288 56 55 60
-45.34056923606179 56.13636363636364 9.11932338367809 162 25 19
12.503785798043916 -34.22348484848485 9.839009949655244 99 17 21
-58.36092862215909 24.62121212121212 -0.13714183460582385 173 45 34
-28.315475926254734 -40.625 -1.278720624519117 57 56 61
-45.34056923606179 55.890151515151516 9.11932338367809 162 27 24
12.840118408203125 -34.71590909090909 9.929130438602332 97 11 20
-31.204050237482246 -40.13257575757576 -5.297024466774681 31 27 24
-45.46367529666785 55.890151515151516 8.906096834124941 160 26 23
-58.36092862215909 24.375 -0.13714183460582385 173 45 36
13.176451018362334 -34.96212121212121 10.019243413751775 98 26 37
-31.540382847641453 -40.13257575757576 -5.3871449557217685 28 22 22
-45.12734268650864 55.6439393939394 8.99621732307203 159 25 24
-58.36092862215909 24.375 -0.13714183460582385 173 45 36
-31.540382847641453 -40.37878787878788 -5.3871449557217685 29 23 23
-45.34056923606179 55.39772727272727 9.11932338367809 158 24 23
-58.57415517171224 24.12878787878788 -0.014035773999763258 172 45 36
-31.540382847641453 -40.625 -5.3871449557217685 29 23 23
-45.00423662590258 55.39772727272727 9.209443872625178 158 22 22
-31.540382847641453 -40.625 -5.3871449557217685 30 24 24
-58.57415517171224 24.12878787878788 -0.014035773999763258 171 44 35
-45.12734268650864 55.151515151515156 8.99621732307203 156 22 21
-31.540382847641453 -40.871212121212125 -5.3871449557217685 29 25 22
12.840118408203125 -34.96212121212121 9.929130438602332 87 28 34
-58.57415517171224 23.882575757575758 -0.014035773999763258 171 44 35
-44.667904015743375 54.90530303030303 9.299564361572266 158 19 22
-31.204050237482246 -41.11742424242424 -5.297024466774681 32 27 24
14.185448848839963 -35.70075757575758 10.289597366795396 27 6 3
-58.697261232318304 23.636363636363637 -0.22726232355291193 171 44 35
-44.454677466190226 54.65909090909091 9.176458300966205 159 20 23
-31.204050237482246 -41.36363636363637 -5.297024466774681 32 27 21
13.849116238680754 -35.946969696969695 10.199484391645951 22 7 4
-58.91048778187145 23.636363636363637 -0.10415626294685133 170 43 34
-44.454677466190226 54.65909090909091 9.176458300966205 159 20 23
-31.204050237482246 -41.609848484848484 -5.297024466774681 31 24 16
14.185448848839963 -36.19318181818182 10.289597366795396 11 8 3
-58.91048778187145 23.390151515151516 -0.10415626294685133 170 43 34
-44.454677466190226 54.41287878787879 9.176458300966205 156 20 22
-31.204050237482246 -41.85606060606061 -5.297024466774681 38 28 18
13.849116238680754 -36.19318181818182 10.199484391645951 14 15 10
-28.315475926254734 -40.625 -1.278720624519117 59 58 63
-31.540382847641453 -41.85606060606061 -5.3871449557217685 44 27 17
-44.118344856031015 54.166666666666664 9.266578789913293 160 20 23
13.849116238680754 -36.43939393939394 10.199484391645951 18 20 17
-28.651808536413945 -40.871212121212125 -1.368841113466205 62 61 66
-31.540382847641453 -42.10227272727273 -5.3871449557217685 59 40 26
13.849116238680754 -36.68560606060606 10.199484391645951 29 27 30
-28.651808536413945 -41.11742424242424 -1.368841113466205 79 74 80
-31.540382847641453 -42.34848484848485 -5.3871449557217685 69 42 31
-24.294812751538824 -35.70075757575758 3.2231712341308594 74 72 85
-31.540382847641453 -42.34848484848485 -5.3871449557217685 68 39 25
-28.865035085967094 -41.11742424242424 -1.2457350528601445 88 82 86
-24.294812751538824 -35.946969696969695 3.2231712341308594 48 46 57
-29.30917566472834 -45.303030303030305 -4.969528082645301 148 78 44
-28.865035085967094 -41.36363636363637 -1.2457350528601445 58 49 52
-24.294812751538824 -35.946969696969695 3.2231712341308594 37 34 45
-29.30917566472834 -45.303030303030305 -4.969528082645301 147 68 29
-28.651808536413945 -41.609848484848484 -1.368841113466205 50 38 40
-43.782012245871805 54.166666666666664 9.35669927886038 159 19 22
-29.645508274887547 -45.303030303030305 -5.059648571592389 151 72 16
-24.294812751538824 -36.19318181818182 3.2231712341308594 34 31 38
-28.651808536413945 -41.85606060606061 -1.368841113466205 58 39 41
-29.645508274887547 -45.54924242424242 -5.059648571592389 152 75 7
-24.508039301091976 -36.19318181818182 3.34627729473692 32 27 34
-28.651808536413945 -41.85606060606061 -1.368841113466205 64 43 42
-30.531385017163828 -45.303030303030305 -5.116783488880504 190 118 34
-24.508039301091976 -36.43939393939394 3.34627729473692 31 26 30
-37.22505164868904 -45.05681818181818 -6.369626594312264 96 49 3
-28.651808536413945 -42.10227272727273 -1.368841113466205 65 39 38
-43.782012245871805 53.92045454545455 9.35669927886038 159 19 22
-28.564062407522492 -18.71212121212121 -9.0956398935029 141 25 25
-43.445679635712594 53.67424242424242 9.446819767807469 161 18 22
-36.88871903852983 -45.303030303030305 -6.279506105365175 97 52 11
-28.651808536413945 -42.34848484848485 -1.368841113466205 67 39 35
-43.445679635712594 53.428030303030305 9.446819767807469 162 17 22
-28.77728895707564 -18.71212121212121 -8.97253383289684 139 23 23
-62.19489646680427 -45.05681818181818 -10.717154994155422 38 37 33
-43.65890618526574 53.428030303030305 9.56992582841353 160 17 21
-62.40812301635742 -45.05681818181818 -10.594048933549361 41 40 36
-28.77728895707564 -18.958333333333332 -8.97253383289684 139 23 23
-43.65890618526574 53.18181818181818 9.56992582841353 160 17 21
-20.080954811789773 -2.7083333333333335 -3.7585142886999883 139 23 24
-28.77728895707564 -19.204545454545453 -8.97253383289684 139 23 24
-43.445679635712594 52.93560606060606 9.446819767807469 160 15 20
-28.651808536413945 -42.59469696969697 -1.368841113466205 65 36 32
-20.294181361342922 -2.7083333333333335 -3.6354082280939277 139 25 25
-28.77728895707564 -19.450757575757574 -8.97253383289684 139 23 23
-43.445679635712594 52.93560606060606 9.446819767807469 160 15 20
-29.324473756732363 -42.34848484848485 -1.549082091360381 76 43 36
-20.294181361342922 -2.9545454545454546 -3.6354082280939277 140 24 25
-28.9003950176817 -19.450757575757574 -9.185752868652344 140 22 22
-43.10934702555338 52.68939393939394 9.536940256754557 160 13 19
-29.53770030628551 -42.59469696969697 -1.4259760307543206 78 49 35
-43.10934702555338 52.44318181818182 9.536940256754557 159 12 18
-28.9003950176817 -19.696969696969695 -9.185752868652344 138 22 22
-29.874032916444722 -42.84090909090909 -1.5160965197014087 79 50 36
-42.98624096494733 52.196969696969695 9.750166806307707 158 13 18
-28.9003950176817 -19.94318181818182 -9.185752868652344 137 21 21
-30.21036552660393 -43.08712121212121 -1.6062094948508523 64 32 19
-20.294181361342922 -3.2007575757575757 -3.6354082280939277 141 25 26
-39.67423410126657 30.53030303030303 -21.445062232739996 136 28 28
-20.630513971502133 -3.4469696969696972 -3.7255287170410156 144 26 26
-28.865035085967094 -45.303030303030305 -1.2457350528601445 149 83 33
-42.98624096494733 52.196969696969695 9.750166806307707 158 13 18
-20.630513971502133 -3.4469696969696972 -3.7255287170410156 145 27 27
-39.67423410126657 30.28409090909091 -21.445062232739996 137 29 29
-29.2013676961263 -45.303030303030305 -1.3358555418072324 162 86 28
-20.294181361342922 -3.6931818181818183 -3.6354082280939277 146 26 27
-39.67423410126657 30.03787878787879 -21.445062232739996 135 27 27
-29.324473756732363 -45.54924242424242 -1.549082091360381 155 77 5
-20.96684658166134 -3.9393939393939394 -3.8156492059881035 150 27 29
-39.67423410126657 30.03787878787879 -21.445062232739996 136 28 28
-29.874032916444722 -45.54924242424242 -1.5160965197014087 169 97 0
-20.630513971502133 -4.1856060606060606 -3.7255287170410156 151 28 30
-39.67423410126657 29.791666666666668 -21.445062232739996 136 30 30
-37.78990890040542 -45.05681818181818 -2.916187517570727 104 56 10
-20.630513971502133 -4.431818181818182 -3.7255287170410156 151 28 30
-39.67423410126657 29.545454545454547 -21.445062232739996 136 32 31
-37.78990890040542 -45.303030303030305 -2.916187517570727 99 56 13
-42.98624096494733 51.95075757575758 9.750166806307707 157 14 18
-39.67423410126657 28.806818181818183 -21.445062232739996 123 34 28
-60.774751143022016 8.125 -7.272552143443715 37 28 19
-21.18007313121449 -4.431818181818182 -3.692543145382043 153 29 29
-42.77301441539418 51.70454545454545 9.627060745701645 158 15 21
-39.67423410126657 28.560606060606062 -21.445062232739996 119 34 27
-60.774751143022016 7.878787878787879 -7.272552143443715 38 29 20
-42.77301441539418 51.70454545454545 9.627060745701645 158 15 21
-21.18007313121449 -4.678030303030303 -3.692543145382043 153 29 29
-39.67423410126657 28.31439393939394 -21.445062232739996 120 37 29
-60.774751143022016 7.878787878787879 -7.272552143443715 40 31 22
-32.00219587846236 -45.05681818181818 -13.08095816409949 155 81 20
-60.774751143022016 7.632575757575758 -7.272552143443715 39 30 21
-39.33790149110736 28.06818181818182 -21.35494174379291 127 34 26
-60.774751143022016 7.386363636363637 -7.272552143443715 36 27 18
-32.33852848862157 -45.05681818181818 -13.17107865304658 159 86 18
-61.11108375318123 7.386363636363637 -7.362672632390803 35 26 17
-32.674861098780774 -45.303030303030305 -13.261199141993668 170 98 24
-61.11108375318123 7.140151515151516 -7.362672632390803 42 33 24
-35.45562744140625 -45.05681818181818 -13.645822929613518 92 45 0
-60.774751143022016 6.8939393939393945 -7.272552143443715 31 22 13
-35.33252138080019 -45.303030303030305 -13.43259638006037 82 42 6
-60.56152459346887 6.6477272727272725 -7.395658204049775 32 24 13
-60.90907530351119 -45.303030303030305 -16.861254952170633 47 46 41
-60.56152459346887 6.6477272727272725 -7.395658204049775 35 27 16
-61.2454079136704 -45.303030303030305 -16.95137544111772 38 37 32
-39.33790149110736 28.06818181818182 -21.35494174379291 126 33 25
-60.56152459346887 6.401515151515151 -7.395658204049775 40 32 21
-61.36851397427645 -45.303030303030305 -17.164601990670867 30 27 22
-39.33790149110736 27.329545454545453 -21.35494174379291 119 41 28
-60.56152459346887 6.15530303030303 -7.395658204049775 44 36 25
-61.36851397427645 -45.54924242424242 -17.164601990670867 28 25 20
-15.049550605542732 5.416666666666667 -19.172649383544922 46 12 13
-60.774751143022016 6.15530303030303 -7.272552143443715 51 43 32
-61.36851397427645 -45.54924242424242 -17.164601990670867 33 28 22
-15.049550605542732 5.170454545454546 -19.172649383544922 37 16 15
-28.9003950176817 -19.94318181818182 -9.185752868652344 136 22 22
-61.36851397427645 -45.79545454545455 -17.164601990670867 41 36 30
-60.774751143022016 5.909090909090909 -7.272552143443715 41 33 22
-14.836324055989584 4.924242424242424 -19.295755444150984 19 9 7
-61.58174052382961 -45.79545454545455 -17.04149593006481 52 48 39
-28.9003950176817 -20.18939393939394 -9.185752868652344 137 21 22
-60.56152459346887 5.662878787878788 -7.395658204049775 40 32 21
-61.58174052382961 -46.041666666666664 -17.04149593006481 51 47 38
-29.23672762784091 -20.435606060606062 -9.275873357599432 136 22 22
-60.56152459346887 5.662878787878788 -7.395658204049775 37 29 16
-28.9003950176817 -20.681818181818183 -9.185752868652344 139 20 22
-61.58174052382961 -46.28787878787879 -17.04149593006481 49 45 34
-60.43841853286281 5.416666666666667 -7.182431654496627 49 37 21
-14.836324055989584 4.678030303030303 -19.295755444150984 18 10 7
-28.9003950176817 -20.928030303030305 -9.185752868652344 139 20 22
-60.56152459346887 5.170454545454546 -7.395658204049775 57 45 23
-21.338524095939867 13.541666666666666 -11.845795024525035 123 17 17
-14.836324055989584 4.431818181818182 -19.295755444150984 27 17 15
-29.23672762784091 -20.928030303030305 -9.275873357599432 137 21 22
-60.56152459346887 5.170454545454546 -7.395658204049775 86 71 48
-21.00219148578066 13.295454545454545 -11.755674535577947 114 14 14
-28.9003950176817 -21.174242424242426 -9.185752868652344 139 20 22
-60.43841853286281 4.924242424242424 -7.182431654496627 101 85 62
-21.00219148578066 13.049242424242424 -11.755674535577947 112 12 12
-28.9003950176817 -21.420454545454547 -9.185752868652344 138 19 21
-60.43841853286281 4.678030303030303 -7.182431654496627 112 92 67
-21.338524095939867 12.803030303030303 -11.845795024525035 115 13 11
-28.9003950176817 -21.666666666666668 -9.185752868652344 136 20 21
-14.499991445830375 4.1856060606060606 -19.205634955203895 32 22 20
-24.294812751538824 -36.68560606060606 3.2231712341308594 32 26 30
-28.9003950176817 -21.91287878787879 -9.185752868652344 136 20 21
-60.43841853286281 4.431818181818182 -7.182431654496627 128 107 80
-14.499991445830375 3.9393939393939394 -19.205634955203895 36 29 23
