ply
format ascii 1.0
comment Java E3D tool
element vertex 726
property double x
property double y
property double z
property uint8 red
property uint8 green
property uint8 blue
end_header
23.38241230357777 -41.36363636363637 -9.235321391712535 61 38 30
26.213851697517164 -45.303030303030305 -4.331125779585405 155 84 38
23.011365948301375 -16.25 10.311394893761838 150 28 27
44.844057487718985 16.742424242424242 2.823707696163293 35 32 23
23.505518364183832 -41.609848484848484 -9.022094842159387 65 42 28
23.224592497854523 -16.25 10.188288833155777 149 27 26
26.336957758123226 -45.54924242424242 -4.117899230032256 152 78 15
44.630830938165836 16.742424242424242 2.9468137567693535 31 37 25
23.224592497854523 -16.49621212121212 10.188288833155777 149 27 26
26.550184307676375 -45.54924242424242 -4.241005290638316 151 77 2
23.89725771817294 -16.49621212121212 10.368529811049953 149 27 26
27.222849527994793 -45.54924242424242 -4.060756798946496 172 100 15
44.844057487718985 16.49621212121212 2.823707696163293 33 35 24
23.56092510801373 -16.742424242424242 10.278409322102865 149 27 26
23.38241230357777 -41.85606060606061 -9.235321391712535 65 36 20
39.17471683386601 -44.81060606060606 -1.5792274475097656 86 39 0
24.11048426772609 -16.742424242424242 10.245423750443893 147 27 26
44.29449832800663 16.25 2.85670078161991 35 37 26
23.505518364183832 -41.85606060606061 -9.022094842159387 67 35 14
23.89725771817294 -17.234848484848484 10.368529811049953 150 28 27
38.8383842237068 -45.303030303030305 -1.6693404226592092 98 50 4
44.630830938165836 16.00378787878788 2.9468137567693535 40 33 25
23.71874491373698 -41.85606060606061 -9.145200902765447 98 61 35
24.11048426772609 -17.234848484848484 10.245423750443893 147 27 26
53.357791322650336 -45.05681818181818 1.3199187770034329 58 53 49
23.71874491373698 -42.10227272727273 -9.145200902765447 108 67 39
44.630830938165836 16.00378787878788 2.9468137567693535 39 30 23
24.11048426772609 -17.481060606060606 10.245423750443893 147 27 26
53.021458712491125 -45.303030303030305 1.2297982880563447 34 29 25
24.3914101340554 -42.10227272727273 -8.964952411073627 121 71 44
44.29449832800663 15.757575757575758 2.85670078161991 36 29 23
24.446816877885297 -17.481060606060606 10.33554423939098 147 27 26
12.793562917998344 59.583333333333336 -7.386363636363637 184 40 32
24.727742744214606 -42.10227272727273 -8.874831922126539 125 72 41
24.783149488044508 -17.727272727272727 10.425657214540424 146 26 25
44.630830938165836 15.511363636363637 2.9468137567693535 38 33 27
12.580336368445193 59.33712121212121 -7.263257575757576 179 25 23
25.064075354373816 -42.10227272727273 -8.784711433179451 128 74 40
24.783149488044508 -17.973484848484848 10.425657214540424 146 26 25
13.132254860617898 49.48863636363637 0.0942230224609375 144 15 19
12.580336368445193 59.09090909090909 -7.263257575757576 188 28 30
25.400407964533027 -42.34848484848485 -8.694598458030008 136 76 40
24.783149488044508 -17.973484848484848 10.425657214540424 146 26 25
12.244003758285984 58.84469696969697 -7.353378064704664 181 21 23
13.132254860617898 49.24242424242424 0.0942230224609375 144 15 19
25.736740574692234 -42.34848484848485 -8.60447796908292 136 76 39
11.907671148126775 58.59848484848485 -7.443498553651752 180 22 21
12.79592225045869 48.996212121212125 0.004102533513849432 144 15 19
11.907671148126775 58.35227272727273 -7.443498553651752 179 23 24
11.907671148126775 58.35227272727273 -7.443498553651752 171 21 23
12.79592225045869 48.75 0.004102533513849432 144 15 19
24.783149488044508 -18.21969696969697 10.425657214540424 146 26 25
26.95896495472301 -43.08712121212121 -8.457222562847715 58 27 7
11.571338537967566 58.10606060606061 -7.53361904259884 170 21 25
25.332708647756867 -18.21969696969697 10.392671642881451 145 27 27
12.79592225045869 48.50378787878788 0.004102533513849432 144 15 19
11.571338537967566 57.859848484848484 -7.53361904259884 168 19 23
25.332708647756867 -18.46590909090909 10.392671642881451 145 27 27
25.613634514086176 -45.54924242424242 -8.817704518636068 152 84 13
11.571338537967566 57.61363636363637 -7.53361904259884 165 19 22
36.20723261977687 38.16287878787879 4.114270065770005 172 39 32
26.073073184851445 -45.54924242424242 -8.514357480135832 162 90 5
11.358111988414418 57.36742424242424 -7.410512981992779 164 17 23
26.6226323445638 -45.54924242424242 -8.547343051794803 194 122 22
11.021779378255209 57.121212121212125 -7.500633470939867 162 19 23
36.20723261977687 37.916666666666664 4.114270065770005 165 32 27
40.042921124082625 -45.05681818181818 -5.492105195016572 80 31 0
25.332708647756867 -18.71212121212121 10.392671642881451 145 27 27
4.134948036887429 6.401515151515151 2.7301158327044863 99 20 23
36.20723261977687 37.916666666666664 4.114270065770005 157 24 19
25.332708647756867 -18.958333333333332 10.392671642881451 145 27 27
-19.289932250976562 -10.587121212121213 -18.14598661480528 196 54 53
25.332708647756867 -19.204545454545453 10.392671642881451 145 27 27
36.20723261977687 37.67045454545455 4.114270065770005 152 20 15
4.134948036887429 6.15530303030303 2.7301158327044863 98 19 22
25.332708647756867 -19.204545454545453 10.392671642881451 145 27 27
4.348174586440578 6.15530303030303 2.6070097720984258 97 21 23
36.420459169330016 37.42424242424242 3.9911640051639443 147 15 10
25.669041257916074 -19.204545454545453 10.482792131828539 144 26 26
4.134948036887429 5.909090909090909 2.7301158327044863 99 19 20
25.669041257916074 -19.450757575757574 10.482792131828539 144 26 26
-18.95359964081735 -11.079545454545455 -18.05586612585819 187 53 50
4.348174586440578 5.662878787878788 2.6070097720984258 98 20 20
37.64266852176551 36.43939393939394 4.1384194113991475 163 31 27
25.669041257916074 -19.696969696969695 10.482792131828539 144 26 26
-18.95359964081735 -11.325757575757576 -18.05586612585819 185 53 49
4.348174586440578 5.416666666666667 2.6070097720984258 99 19 18
26.005358840479996 -19.94318181818182 10.572912620775627 144 26 26
-19.289932250976562 -11.571969696969697 -18.14598661480528 188 53 50
4.348174586440578 5.170454545454546 2.6070097720984258 99 19 18
37.97900113192472 36.19318181818182 4.228539900346236 161 29 25
26.005358840479996 -19.94318181818182 10.572912620775627 144 26 26
4.348174586440578 4.924242424242424 2.6070097720984258 101 20 17
25.669041257916074 -20.435606060606062 10.482792131828539 144 26 26
4.348174586440578 4.678030303030303 2.6070097720984258 101 20 17
38.102107192530774 35.70075757575758 4.441766449899385 157 30 24
26.341691450639203 -20.435606060606062 10.663033109722715 144 26 26
4.348174586440578 4.678030303030303 2.6070097720984258 104 20 18
-18.617267030658144 -11.571969696969697 -17.9657456369111 182 53 48
23.58743378610322 -21.666666666666668 16.233424562396426 125 29 31
4.348174586440578 4.431818181818182 2.6070097720984258 104 20 18
38.31533374208392 35.45454545454545 4.318660389293324 155 30 26
26.341691450639203 -20.435606060606062 10.663033109722715 144 26 26
4.348174586440578 4.1856060606060606 2.6070097720984258 104 20 20
23.800660335656367 -22.15909090909091 16.110318501790363 129 31 30
26.341691450639203 -20.681818181818183 10.663033109722715 144 26 26
38.65166635224313 34.96212121212121 4.408780878240412 153 30 25
4.684507196599787 3.9393939393939394 2.6971302610455137 102 21 20
38.987998962402344 34.71590909090909 4.4989013671875 151 29 26
5.020839806758996 3.9393939393939394 2.7872432361949575 101 20 19
26.341691450639203 -20.928030303030305 10.663033109722715 144 26 26
38.987998962402344 34.46969696969697 4.4989013671875 151 29 26
24.136992945815578 -22.651515151515152 16.200438990737453 127 32 26
5.020839806758996 3.6931818181818183 2.7872432361949575 100 19 18
26.341691450639203 -21.174242424242426 10.663033109722715 142 24 24
24.47332555597479 -22.897727272727273 16.29055947968454 118 28 27
5.020839806758996 3.4469696969696972 2.7872432361949575 99 17 19
26.341691450639203 -21.420454545454547 10.663033109722715 142 24 24
39.324331572561555 34.46969696969697 4.589021856134588 150 28 25
24.809658166133996 -23.390151515151516 16.38067996863163 120 32 31
4.684507196599787 3.2007575757575757 2.6971302610455137 99 17 21
26.891250610351562 -21.420454545454547 10.630047538063742 142 24 24
4.684507196599787 2.9545454545454546 2.6971302610455137 98 18 21
26.891250610351562 -21.666666666666668 10.630047538063742 142 24 24
39.5375581221147 33.97727272727273 4.465915795528527 148 26 23
5.020839806758996 2.7083333333333335 2.7872432361949575 96 21 25
26.891250610351562 -21.666666666666668 10.630047538063742 142 24 24
39.873890732273914 33.73106060606061 4.556036284475615 147 25 24
24.809658166133996 -24.12878787878788 16.38067996863163 127 27 29
21.9446020415335 46.53409090909091 -16.64992939342152 55 54 72
26.554918000192355 -21.91287878787879 10.539927049116654 142 24 24
5.020839806758996 2.462121212121212 2.7872432361949575 90 21 24
39.873890732273914 33.484848484848484 4.556036284475615 145 27 25
21.60826943137429 46.28787878787879 -16.74004988236861 49 52 71
26.891250610351562 -22.15909090909091 10.630047538063742 142 24 24
39.99699679287997 33.23863636363637 4.769262834028765 145 27 25
21.9446020415335 46.28787878787879 -16.64992939342152 54 49 69
26.891250610351562 -22.40530303030303 10.630047538063742 142 24 24
26.891250610351562 -22.651515151515152 10.630047538063742 142 24 24
39.99699679287997 32.99242424242424 4.769262834028765 145 27 25
5.020839806758996 2.462121212121212 2.7872432361949575 79 19 21
27.44080977006392 -22.651515151515152 10.597061966404771 139 23 23
40.21022334243312 32.99242424242424 4.646156773422704 145 25 24
5.020839806758996 2.215909090909091 2.7872432361949575 68 20 20
27.44080977006392 -22.651515151515152 10.597061966404771 139 23 23
40.21022334243312 32.746212121212125 4.646156773422704 146 26 25
5.020839806758996 1.9696969696969697 2.7872432361949575 57 22 20
27.227583220510773 -23.143939393939394 10.720168027010832 142 24 24
22.06770810213956 46.041666666666664 -16.43670284386837 56 47 66
40.54655595259233 32.5 4.736277262369792 144 24 23
5.693505027077415 1.7234848484848486 2.9674842140891338 18 7 1
27.44080977006392 -23.143939393939394 10.597061966404771 139 23 23
40.54655595259233 32.25378787878788 4.736277262369792 144 24 23
5.693505027077415 1.4772727272727273 2.9674842140891338 12 7 1
27.44080977006392 -23.390151515151516 10.597061966404771 139 23 23
22.06770810213956 45.79545454545455 -16.43670284386837 53 49 66
20.03914804169626 62.04545454545455 1.223960067286636 187 28 22
5.9067315766305635 1.231060606060606 2.8443781534830728 9 10 2
22.280934651692707 45.54924242424242 -16.559808904474433 50 49 67
27.44080977006392 -23.636363636363637 10.597061966404771 139 23 23
19.70281543153705 61.79924242424242 1.1338395783395478 192 26 26
5.9067315766305635 0.9848484848484849 2.8443781534830728 8 11 2
22.280934651692707 45.54924242424242 -16.559808904474433 46 49 68
27.44080977006392 -23.636363636363637 10.597061966404771 139 23 23
19.70281543153705 61.553030303030305 1.1338395783395478 183 27 28
6.2430641867897725 0.9848484848484849 2.934498642430161 8 11 4
27.44080977006392 -23.882575757575758 10.597061966404771 138 24 24
19.70281543153705 61.553030303030305 1.1338395783395478 176 26 28
22.617267261851918 45.303030303030305 -16.469688415527344 41 49 68
14.354479240648674 -3.6931818181818183 0.2414784286961411 121 21 23
22.617267261851918 45.05681818181818 -16.469688415527344 41 49 68
27.44080977006392 -24.12878787878788 10.597061966404771 138 24 24
15.027144460967094 -3.6931818181818183 0.42171940659031726 124 20 21
22.95359987201113 45.05681818181818 -16.379567926580258 40 45 64
-18.280934420498934 -11.818181818181818 -17.875625147964016 181 52 47
15.027144460967094 -3.9393939393939394 0.42171940659031726 125 21 22
27.56391583066998 -24.12878787878788 10.81028851595792 138 24 24
-18.280934420498934 -12.06439393939394 -17.875625147964016 181 52 47
27.56391583066998 -24.375 10.81028851595792 138 24 24
-18.617267030658144 -12.31060606060606 -17.9657456369111 183 51 47
-18.617267030658144 -12.556818181818182 -17.9657456369111 182 50 46
15.027144460967094 -4.1856060606060606 0.42171940659031726 125 21 22
-18.617267030658144 -12.803030303030303 -17.9657456369111 181 49 44
15.240371010520242 -4.431818181818182 0.29861334598425665 127 21 23
27.56391583066998 -24.62121212121212 10.81028851595792 138 24 24
-18.280934420498934 -12.803030303030303 -17.875625147964016 180 48 43
15.240371010520242 -4.431818181818182 0.29861334598425665 127 21 23
27.90024844082919 -24.62121212121212 10.900409004905008 138 24 24
-18.280934420498934 -13.049242424242424 -17.875625147964016 180 48 43
15.576703620679451 -4.678030303030303 0.3887338349313447 127 21 23
27.90024844082919 -24.867424242424242 10.900409004905008 138 24 24
-18.280934420498934 -13.295454545454545 -17.875625147964016 180 48 43
15.576703620679451 -4.924242424242424 0.3887338349313447 127 21 23
27.90024844082919 -25.113636363636363 10.900409004905008 138 24 24
-17.608269200180516 -13.295454545454545 -17.69538417006984 177 48 43
15.91303623083866 -4.924242424242424 0.47884681008078833 130 22 22
27.90024844082919 -25.359848484848484 10.900409004905008 138 24 24
-17.608269200180516 -13.541666666666666 -17.69538417006984 178 49 44
15.91303623083866 -5.170454545454546 0.47884681008078833 130 22 22
27.90024844082919 -25.606060606060606 10.900409004905008 138 24 24
-17.944601810339726 -14.03409090909091 -17.785504659016926 180 48 44
27.90024844082919 -25.606060606060606 10.900409004905008 138 24 24
16.036142291444722 -5.416666666666667 0.692073359633937 132 22 23
11.358111988414418 57.121212121212125 -7.410512981992779 161 18 22
28.449807600541547 -25.606060606060606 10.867423433246035 136 24 23
16.24936884099787 -5.416666666666667 0.5689672990278765 132 22 23
-17.944601810339726 -14.03409090909091 -17.785504659016926 179 50 45
10.685446768096 56.875 -7.590753959886956 160 20 23
16.24936884099787 -5.662878787878788 0.5689672990278765 133 23 24
10.685446768096 56.62878787878788 -7.590753959886956 159 19 22
-17.27193659002131 -14.280303030303031 -17.60526368112275 178 51 44
16.585701451157078 -5.909090909090909 0.6590877879749645 133 23 24
11.021779378255209 56.38257575757576 -7.500633470939867 158 19 22
-17.608269200180516 -14.526515151515152 -17.69538417006984 179 52 45
16.585701451157078 -5.909090909090909 0.6590877879749645 134 24 25
10.56234070748994 56.13636363636364 -7.8039805094401045 159 18 24
28.449807600541547 -25.852272727272727 10.867423433246035 136 24 23
-16.935603979862098 -15.511363636363637 -17.51515070597331 180 49 57
10.685446768096 55.890151515151516 -7.590753959886956 158 19 24
17.258366671475496 -6.15530303030303 0.8393287658691406 133 23 24
28.449807600541547 -26.098484848484848 10.867423433246035 136 24 23
-16.935603979862098 -15.757575757575758 -17.51515070597331 151 42 47
10.56234070748994 55.890151515151516 -7.8039805094401045 159 18 24
16.92203406131629 -6.401515151515151 0.7492082769220526 139 25 25
10.56234070748994 55.6439393939394 -7.8039805094401045 159 18 24
-16.935603979862098 -15.757575757575758 -17.51515070597331 96 18 16
17.258366671475496 -6.401515151515151 0.8393287658691406 140 26 26
10.56234070748994 55.39772727272727 -7.8039805094401045 159 19 22
39.4603763927113 32.99242424242424 -6.008678783069957 188 58 45
17.258366671475496 -6.6477272727272725 0.8393287658691406 141 25 26
10.226008097330729 55.151515151515156 -7.894093484589548 159 19 22
28.449807600541547 -26.34469696969697 10.867423433246035 136 24 23
39.7967090028705 32.746212121212125 -5.918558294122869 186 58 45
10.01278154777758 54.90530303030303 -7.770987423983487 159 20 23
17.471593221028645 -6.8939393939393945 0.7162227052630801 142 26 27
44.29449832800663 15.265151515151516 2.85670078161991 37 33 24
17.807925831187855 -6.8939393939393945 0.8063431942101681 146 26 27
10.226008097330729 54.65909090909091 -7.894093484589548 159 20 23
44.29449832800663 15.018939393939394 2.85670078161991 36 32 23
17.807925831187855 -7.140151515151516 0.8063431942101681 147 27 28
18.480591051506273 -7.140151515151516 0.9865841721043442 149 26 28
18.480591051506273 -7.386363636363637 0.9865841721043442 150 27 29
10.226008097330729 54.65909090909091 -7.894093484589548 159 20 23
18.480591051506273 -7.632575757575758 0.9865841721043442 152 28 28
10.01278154777758 54.41287878787879 -7.770987423983487 159 20 23
18.480591051506273 -7.878787878787879 0.9865841721043442 153 29 29
44.29449832800663 15.018939393939394 2.85670078161991 36 31 25
10.01278154777758 54.166666666666664 -7.770987423983487 159 20 23
18.816923661665484 -7.878787878787879 1.0767046610514324 153 28 26
43.95816571784742 14.772727272727273 2.766580292672822 35 30 24
18.816923661665484 -8.125 1.0767046610514324 154 29 27
43.95816571784742 14.526515151515152 2.766580292672822 35 30 24
18.816923661665484 -8.125 1.0767046610514324 154 30 28
43.95816571784742 14.280303030303031 2.766580292672822 34 29 23
18.816923661665484 -8.371212121212121 1.0767046610514324 155 31 29
43.62183310768821 14.03409090909091 2.676459803725734 34 29 23
10.01278154777758 53.92045454545455 -7.770987423983487 159 20 23
22.95359987201113 44.81060606060606 -16.379567926580258 41 42 60
18.816923661665484 -8.617424242424242 1.0767046610514324 156 32 30
43.95816571784742 14.03409090909091 2.766580292672822 35 30 24
9.676448937618371 53.67424242424242 -7.861107912930575 161 21 24
23.076705932617188 44.56439393939394 -16.166341377027106 58 37 52
43.40862158573035 13.787878787878789 2.7995658643317944 31 26 20
9.676448937618371 53.428030303030305 -7.861107912930575 161 21 24
43.62183310768821 13.541666666666666 2.676459803725734 35 30 24
23.289932482170336 44.31818181818182 -16.289447437633168 78 31 41
9.340116327459162 53.428030303030305 -7.951228401877663 161 21 24
43.62183310768821 13.295454545454545 2.676459803725734 34 31 24
23.626265092329547 44.31818181818182 -16.19932694868608 129 53 57
19.15325627182469 -8.617424242424242 1.1668251499985203 156 32 32
9.340116327459162 53.18181818181818 -7.951228401877663 161 21 24
43.40862158573035 13.295454545454545 2.7995658643317944 33 30 23
23.289932482170336 44.071969696969695 -16.289447437633168 105 39 49
19.36648282137784 -8.863636363636363 1.0437190893924597 154 34 33
9.676448937618371 52.93560606060606 -7.861107912930575 161 21 24
43.62183310768821 13.049242424242424 2.676459803725734 34 31 26
19.70281543153705 -8.863636363636363 1.1338395783395478 153 33 32
23.626265092329547 43.82575757575758 -16.19932694868608 153 62 67
9.340116327459162 52.68939393939394 -7.951228401877663 164 21 25
43.40862158573035 12.803030303030303 2.7995658643317944 31 28 23
19.70281543153705 -9.109848484848484 1.1338395783395478 155 33 32
23.626265092329547 43.57954545454545 -16.19932694868608 165 66 61
9.003783717299953 52.44318181818182 -8.041348890824752 164 21 25
20.03914804169626 -9.356060606060606 1.223960067286636 157 32 30
24.085703763094816 43.57954545454545 -15.895979910185844 184 59 39
9.340116327459162 52.196969696969695 -7.951228401877663 164 21 25
19.70281543153705 -9.602272727272727 1.1338395783395478 158 33 31
24.085703763094816 43.333333333333336 -15.895979910185844 185 59 36
9.003783717299953 51.95075757575758 -8.041348890824752 166 23 27
6.2430641867897725 0.7386363636363636 2.934498642430161 8 9 1
9.003783717299953 51.95075757575758 -8.041348890824752 166 23 29
24.085703763094816 43.08712121212121 -15.895979910185844 183 58 36
20.03914804169626 -9.602272727272727 1.223960067286636 158 33 31
6.579381769353693 0.49242424242424243 3.024619131377249 8 5 0
8.117891947428385 51.70454545454545 -8.098483808112867 142 6 18
24.298930312647965 43.08712121212121 -16.019085970791902 180 59 42
9.003783717299953 51.458333333333336 -8.041348890824752 147 11 21
24.298930312647965 42.84090909090909 -16.019085970791902 180 59 42
11.25505273992365 -0.24621212121212122 3.7367393031264795 130 26 23
7.781559337269176 51.21212121212121 -8.188604297059955 111 16 14
24.085703763094816 42.59469696969697 -15.895979910185844 178 56 41
7.781559337269176 50.96590909090909 -8.188604297059955 93 21 22
24.635262922807172 42.34848484848485 -15.92897299564246 181 60 41
20.37548065185547 -9.848484848484848 1.3140730424360796 154 35 31
8.117891947428385 50.71969696969697 -8.098483808112867 70 19 28
24.635262922807172 42.34848484848485 -15.92897299564246 181 60 41
20.03914804169626 -10.09469696969697 1.223960067286636 158 34 32
8.454224557587596 50.71969696969697 -8.00836331916578 56 14 26
24.298930312647965 42.10227272727273 -16.019085970791902 177 57 41
20.588692173813328 -10.09469696969697 1.190966981830019 149 34 31
11.25505273992365 -0.49242424242424243 3.7367393031264795 129 27 23
36.57417644153942 39.14772727272727 -2.636516455448035 204 66 53
24.635262922807172 41.85606060606061 -15.92897299564246 179 57 36
20.588692173813328 -10.340909090909092 1.190966981830019 150 35 32
11.25505273992365 -0.49242424242424243 3.7367393031264795 130 26 25
36.910509051698625 39.14772727272727 -2.546395966500947 199 61 48
24.971595532966383 41.609848484848484 -15.838852506695371 182 57 37
20.588692173813328 -10.587121212121213 1.190966981830019 152 34 32
11.59138535008286 -0.7386363636363636 3.826859792073568 130 26 25
36.910509051698625 38.90151515151515 -2.546395966500947 194 52 42
11.927717960242068 -0.7386363636363636 3.9169802810206558 129 25 24
20.92502478397254 -10.587121212121213 1.281087470777107 154 32 31
24.971595532966383 41.609848484848484 -15.838852506695371 182 59 41
36.910509051698625 38.65530303030303 -2.546395966500947 175 33 23
11.59138535008286 -1.231060606060606 3.826859792073568 129 23 23
21.048130844578598 -10.833333333333334 1.4943140203302556 151 26 30
25.145990776293207 -24.12878787878788 16.47080045757872 121 29 30
12.26405057040128 -1.231060606060606 4.007100769967744 128 24 25
21.048130844578598 -11.079545454545455 1.4943140203302556 152 26 29
11.927717960242068 -1.4772727272727273 3.9169802810206558 127 23 24
25.145990776293207 -24.62121212121212 16.47080045757872 126 26 28
12.26405057040128 -1.7234848484848486 4.007100769967744 129 23 25
25.359217325846355 -24.62121212121212 16.347694396972656 122 28 29
12.26405057040128 -1.7234848484848486 4.007100769967744 131 22 25
12.813609730113637 -1.9696969696969697 3.9741151983087715 132 23 26
25.359217325846355 -25.113636363636363 16.347694396972656 125 25 27
13.149942340272846 -1.9696969696969697 4.064235687255859 132 23 26
21.048130844578598 -11.079545454545455 1.4943140203302556 151 25 29
12.813609730113637 -2.215909090909091 3.9741151983087715 132 23 26
25.359217325846355 -25.359848484848484 16.347694396972656 126 26 28
21.048130844578598 -11.325757575757576 1.4943140203302556 144 28 29
13.149942340272846 -2.462121212121212 4.064235687255859 132 23 26
25.359217325846355 -25.606060606060606 16.347694396972656 130 27 30
21.048130844578598 -11.571969696969697 1.4943140203302556 132 37 35
13.149942340272846 -2.7083333333333335 4.064235687255859 131 22 25
25.359217325846355 -25.606060606060606 16.347694396972656 132 28 29
13.486274950432055 -2.7083333333333335 4.154356176202947 131 22 25
21.597690004290957 -11.571969696969697 1.4613284486712832 39 11 0
13.486274950432055 -2.9545454545454546 4.154356176202947 130 21 24
25.695549936005563 -26.098484848484848 16.437814885919746 130 25 29
21.261357394131746 -11.818181818181818 1.371207959724195 55 5 0
43.62183310768821 12.803030303030303 2.676459803725734 45 42 37
21.261357394131746 -12.06439393939394 1.371207959724195 41 1 0
25.695549936005563 -26.34469696969697 16.437814885919746 131 25 27
13.699501499985203 -3.2007575757575757 4.031250115596887 131 22 25
21.261357394131746 -12.556818181818182 1.371207959724195 37 14 8
6.61000800855232 4.431818181818182 -3.816287878787879 92 17 21
26.031882546164773 -26.34469696969697 16.527935374866832 131 26 30
14.035834110144414 -3.2007575757575757 4.121370604543975 131 22 25
6.61000800855232 4.431818181818182 -3.816287878787879 93 17 19
14.372166720303623 -3.4469696969696972 4.211491093491063 132 22 25
26.031882546164773 -26.83712121212121 16.527935374866832 136 23 25
6.61000800855232 4.1856060606060606 -3.816287878787879 96 17 20
14.035834110144414 -3.6931818181818183 4.121370604543975 129 23 25
6.61000800855232 3.9393939393939394 -3.816287878787879 99 17 21
26.031882546164773 -26.83712121212121 16.527935374866832 136 22 22
21.597690004290957 -12.556818181818182 1.4613284486712832 22 7 0
6.61000800855232 3.6931818181818183 -3.816287878787879 101 16 21
14.708484302867543 -3.6931818181818183 4.301611582438151 128 20 18
26.031882546164773 -27.083333333333332 16.527935374866832 136 22 22
6.61000800855232 3.4469696969696972 -3.816287878787879 102 15 21
21.597690004290957 -12.803030303030303 1.4613284486712832 17 4 0
14.372166720303623 -3.9393939393939394 4.211491093491063 129 23 23
26.031882546164773 -27.329545454545453 16.527935374866832 138 24 24
6.273675398393111 3.2007575757575757 -3.906408367734967 105 16 22
21.934022614450168 -12.803030303030303 1.5514489376183713 50 16 14
14.708484302867543 -4.1856060606060606 4.301611582438151 128 26 22
6.61000800855232 2.9545454545454546 -3.816287878787879 105 14 19
26.031882546164773 -27.575757575757578 16.527935374866832 138 24 24
21.934022614450168 -13.049242424242424 1.5514489376183713 61 20 18
14.67549873120857 -4.1856060606060606 3.752052422725793 127 23 24
6.61000800855232 2.9545454545454546 -3.816287878787879 105 14 19
26.245109095717922 -27.8219696969697 16.404829314260773 135 25 26
21.597690004290957 -13.295454545454545 1.4613284486712832 44 11 6
6.61000800855232 2.7083333333333335 -3.816287878787879 105 14 19
26.245109095717922 -28.06818181818182 16.404829314260773 135 25 24
6.273675398393111 2.462121212121212 -3.906408367734967 104 15 19
21.597690004290957 -13.541666666666666 1.4613284486712832 64 19 14
6.61000800855232 2.215909090909091 -3.816287878787879 102 16 19
26.581441705877133 -28.06818181818182 16.49494980320786 124 20 11
21.597690004290957 -13.787878787878789 1.4613284486712832 86 27 23
39.7967090028705 32.5 -5.918558294122869 187 59 46
15.348163951526988 -4.1856060606060606 3.9322934006199692 125 25 23
6.61000800855232 1.9696969696969697 -3.816287878787879 101 16 19
26.581441705877133 -28.31439393939394 16.49494980320786 141 33 23
6.61000800855232 1.7234848484848486 -3.816287878787879 101 17 17
40.00993555242365 32.5 -6.04166435472893 189 59 46
6.61000800855232 1.7234848484848486 -3.816287878787879 98 18 17
26.581441705877133 -28.560606060606062 16.49494980320786 126 16 3
26.581441705877133 -28.806818181818183 16.49494980320786 130 25 6
6.61000800855232 1.4772727272727273 -3.816287878787879 94 18 18
40.00993555242365 32.25378787878788 -6.04166435472893 189 56 47
15.01183134136778 -4.678030303030303 3.8421729116728813 126 23 24
26.581441705877133 -29.053030303030305 16.49494980320786 128 25 6
6.61000800855232 1.231060606060606 -3.816287878787879 94 18 18
40.00993555242365 32.00757575757576 -6.04166435472893 187 56 46
15.561390501080137 -4.678030303030303 3.8091873400139087 127 23 22
26.581441705877133 -29.053030303030305 16.49494980320786 128 27 9
6.61000800855232 0.9848484848484849 -3.816287878787879 99 14 17
40.00993555242365 32.00757575757576 -6.04166435472893 186 56 43
15.561390501080137 -4.924242424242424 3.8091873400139087 127 23 22
26.581441705877133 -29.299242424242426 16.49494980320786 126 27 8
6.61000800855232 0.7386363636363636 -3.816287878787879 101 12 16
40.46937422318892 31.761363636363637 -5.738317316228693 186 52 41
15.897723111239348 -4.924242424242424 3.8993003151633525 133 20 24
26.91777431603634 -29.545454545454547 16.58507029215495 102 9 0
40.13304161302971 31.515151515151516 -5.828437805175781 185 58 41
15.561390501080137 -5.170454545454546 3.8091873400139087 128 24 23
26.91777431603634 -29.545454545454547 16.58507029215495 97 4 0
15.897723111239348 -5.416666666666667 3.8993003151633525 134 21 23
26.91777431603634 -29.791666666666668 16.58507029215495 93 0 0
6.61000800855232 0.49242424242424243 -3.816287878787879 101 10 15
40.13304161302971 31.268939393939394 -5.828437805175781 181 59 38
16.234055721398555 -5.416666666666667 3.9894208041104404 136 21 24
28.449807600541547 -26.59090909090909 10.867423433246035 136 24 23
6.273675398393111 0.24621212121212122 -3.906408367734967 97 12 15
16.234055721398555 -5.662878787878788 3.9894208041104404 136 21 24
28.449807600541547 -26.59090909090909 10.867423433246035 137 23 22
6.273675398393111 0.0 -3.906408367734967 92 14 14
28.449807600541547 -26.83712121212121 10.867423433246035 137 23 22
6.273675398393111 -0.24621212121212122 -3.906408367734967 85 15 15
40.13304161302971 31.268939393939394 -5.828437805175781 179 58 37
28.449807600541547 -27.083333333333332 10.867423433246035 137 23 22
6.273675398393111 -0.24621212121212122 -3.906408367734967 80 19 16
16.447282270951703 -5.909090909090909 3.86631474350438 137 21 24
40.68260077274207 31.022727272727273 -5.861423376834754 175 59 46
28.449807600541547 -27.329545454545453 10.867423433246035 137 23 22
10.276666121049361 -0.49242424242424243 -3.3745291738799126 115 16 21
16.783614881110914 -5.909090909090909 3.9564352324514678 137 22 25
40.68260077274207 31.022727272727273 -5.861423376834754 167 59 49
16.783614881110914 -6.15530303030303 3.9564352324514678 137 22 25
40.80570683334813 30.776515151515152 -5.648196827281605 153 65 64
10.276666121049361 -0.7386363636363636 -3.3745291738799126 115 16 21
16.906720941716976 -6.401515151515151 4.169661782004616 134 26 23
40.80570683334813 30.53030303030303 -5.648196827281605 135 56 61
10.61299873120857 -0.9848484848484849 -3.2844086849328242 114 18 20
16.906720941716976 -6.401515151515151 4.169661782004616 134 26 23
40.80570683334813 30.53030303030303 -5.648196827281605 113 50 58
28.449807600541547 -27.575757575757578 10.867423433246035 137 23 22
10.61299873120857 -1.231060606060606 -3.2844086849328242 116 17 20
16.906720941716976 -6.6477272727272725 4.169661782004616 135 26 23
41.142039443507336 30.28409090909091 -5.5580763383345175 65 38 53
28.449807600541547 -27.575757575757578 10.867423433246035 137 23 22
11.162557890920928 -1.231060606060606 -3.317394256591797 117 19 20
16.906720941716976 -6.8939393939393945 4.169661782004616 140 24 24
41.142039443507336 30.03787878787879 -5.5580763383345175 57 40 58
28.999366760253906 -27.575757575757578 10.834430347789418 138 24 24
11.162557890920928 -1.4772727272727273 -3.317394256591797 119 19 21
17.456280101429332 -6.8939393939393945 4.136676210345644 136 20 20
41.142039443507336 29.791666666666668 -5.5580763383345175 54 41 58
28.999366760253906 -27.8219696969697 10.834430347789418 138 24 24
11.162557890920928 -1.7234848484848486 -3.317394256591797 122 19 22
17.243053551876184 -7.140151515151516 4.259782270951705 142 24 22
41.142039443507336 29.791666666666668 -5.5580763383345175 51 44 60
28.999366760253906 -28.06818181818182 10.834430347789418 137 23 23
11.498890501080137 -1.7234848484848486 -3.227273767644709 122 19 22
17.792612711588543 -7.386363636363637 4.226796699292732 139 23 24
41.142039443507336 29.545454545454547 -5.5580763383345175 49 48 66
28.999366760253906 -28.31439393939394 10.834430347789418 138 24 24
11.835223111239348 -1.9696969696969697 -3.1371532786976206 125 19 23
26.91777431603634 -30.03787878787879 16.58507029215495 91 0 0
41.35526599306049 29.299242424242426 -5.681182398940578 40 48 69
17.456280101429332 -7.632575757575758 4.136676210345644 145 25 26
28.999366760253906 -28.560606060606062 10.834430347789418 138 24 24
26.91777431603634 -30.28409090909091 16.58507029215495 82 0 0
18.12894532174775 -7.632575757575758 4.31691718823982 141 25 26
26.91777431603634 -30.53030303030303 16.58507029215495 86 0 0
29.335699370413117 -28.560606060606062 10.924550836736506 138 24 24
18.12894532174775 -7.878787878787879 4.31691718823982 144 25 29
26.91777431603634 -30.776515151515152 16.58507029215495 103 18 0
41.35526599306049 29.299242424242426 -5.681182398940578 41 49 72
18.46527793190696 -7.878787878787879 4.407037677186908 135 20 25
26.91777431603634 -30.776515151515152 16.58507029215495 102 21 0
41.35526599306049 29.053030303030305 -5.681182398940578 42 48 72
18.12894532174775 -8.125 4.31691718823982 141 21 23
26.91777431603634 -31.022727272727273 16.58507029215495 124 50 25
41.47837205366655 28.806818181818183 -5.467955849387429 46 48 73
28.999366760253906 -28.806818181818183 10.834430347789418 138 24 24
18.46527793190696 -8.371212121212121 4.407037677186908 139 24 27
26.91777431603634 -31.268939393939394 16.58507029215495 121 56 38
41.47837205366655 28.806818181818183 -5.467955849387429 47 47 73
18.67850448146011 -8.371212121212121 4.283931616580848 131 22 25
28.999366760253906 -29.053030303030305 10.834430347789418 138 24 24
26.91777431603634 -31.515151515151516 16.58507029215495 113 55 43
41.47837205366655 28.560606060606062 -5.467955849387429 48 45 72
18.67850448146011 -8.617424242424242 4.283931616580848 136 27 30
28.999366760253906 -29.299242424242426 10.834430347789418 138 24 24
26.581441705877133 -32.99242424242424 16.49494980320786 97 34 27
18.67850448146011 -8.863636363636363 4.283931616580848 135 29 31
41.691598603219695 28.31439393939394 -5.591061909993489 47 45 67
28.999366760253906 -29.545454545454547 10.834430347789418 139 25 25
26.581441705877133 -33.23863636363637 16.49494980320786 87 28 22
21.597690004290957 -14.03409090909091 1.4613284486712832 101 30 26
28.999366760253906 -29.545454545454547 10.834430347789418 137 23 23
18.67850448146011 -9.109848484848484 4.283931616580848 130 26 27
21.597690004290957 -14.280303030303031 1.4613284486712832 113 29 27
21.934022614450168 -14.280303030303031 1.5514489376183713 134 30 29
18.67850448146011 -9.356060606060606 4.283931616580848 132 28 29
21.934022614450168 -14.526515151515152 1.5514489376183713 141 33 30
28.999366760253906 -29.791666666666668 10.834430347789418 137 23 23
21.934022614450168 -14.772727272727273 1.5514489376183713 145 33 29
28.999366760253906 -30.03787878787879 10.834430347789418 137 23 23
22.483581774162523 -14.772727272727273 1.5184633659593987 155 36 32
29.672031980572324 -30.03787878787879 11.014671325683594 136 24 23
19.351169701778527 -9.356060606060606 4.4641725944750235 114 28 27
22.483581774162523 -15.018939393939394 1.5184633659593987 160 36 34
19.01483709161932 -9.602272727272727 4.3740521055279356 124 33 32
22.819914384321734 -15.018939393939394 1.6085838549064868 162 37 33
19.351169701778527 -9.602272727272727 4.4641725944750235 86 22 13
22.819914384321734 -15.265151515151516 1.6085838549064868 165 37 34
29.672031980572324 -30.28409090909091 11.014671325683594 136 24 23
36.910509051698625 38.40909090909091 -2.546395966500947 164 20 12
19.351169701778527 -9.848484848484848 4.4641725944750235 65 6 0
29.672031980572324 -30.53030303030303 11.014671325683594 136 24 23
22.943020444927793 -15.265151515151516 1.8218104044596355 165 38 32
36.910509051698625 38.40909090909091 -2.546395966500947 166 25 16
29.672031980572324 -30.53030303030303 11.014671325683594 134 24 23
22.943020444927793 -15.511363636363637 1.8218104044596355 165 38 32
37.246841661857836 38.16287878787879 -2.456275477553859 159 25 13
29.672031980572324 -30.776515151515152 11.014671325683594 134 24 23
23.15624699448094 -15.757575757575758 1.698704343853575 165 40 34
38.59217210249467 37.42424242424242 -2.095793521765507 193 57 45
29.672031980572324 -31.022727272727273 11.014671325683594 134 24 23
23.15624699448094 -15.757575757575758 1.698704343853575 165 40 34
19.351169701778527 -11.818181818181818 4.4641725944750235 43 8 6
38.59217210249467 37.42424242424242 -2.095793521765507 195 59 47
29.672031980572324 -31.268939393939394 11.014671325683594 134 24 23
23.15624699448094 -16.00378787878788 1.698704343853575 165 40 34
19.900728861490887 -12.31060606060606 4.431187022816051 114 30 28
38.80539865204782 37.178030303030305 -2.2188995823715674 192 56 44
29.672031980572324 -31.515151515151516 11.014671325683594 133 23 22
23.492579604640152 -16.25 1.7888248328006628 167 40 34
19.564396251331676 -12.556818181818182 4.341066533868963 107 31 35
39.14173126220703 36.93181818181818 -2.128779093424479 189 53 41
29.672031980572324 -31.515151515151516 11.014671325683594 133 23 22
23.492579604640152 -16.25 1.7888248328006628 168 39 34
39.14173126220703 36.93181818181818 -2.128779093424479 188 52 40
29.672031980572324 -31.761363636363637 11.014671325683594 133 23 22
23.82891221479936 -16.49621212121212 1.878945321747751 169 40 35
39.14173126220703 36.68560606060606 -2.128779093424479 186 50 38
29.672031980572324 -32.00757575757576 11.014671325683594 133 23 22
24.16524482495857 -16.49621212121212 1.969065810694839 168 41 35
19.900728861490887 -12.803030303030303 4.431187022816051 123 28 26
24.971595532966383 41.36363636363637 -15.838852506695371 181 58 40
39.14173126220703 36.43939393939394 -2.128779093424479 183 49 37
24.16524482495857 -16.742424242424242 1.969065810694839 168 41 35
19.900728861490887 -13.049242424242424 4.431187022816051 126 26 24
24.971595532966383 41.11742424242424 -15.838852506695371 181 58 40
39.47806387236624 36.43939393939394 -2.038658604477391 182 50 38
20.360167532256156 -13.049242424242424 4.734534061316288 136 28 25
24.971595532966383 40.871212121212125 -15.838852506695371 180 57 39
24.16524482495857 -16.988636363636363 1.969065810694839 169 42 35
20.360167532256156 -13.295454545454545 4.734534061316288 138 29 24
24.971595532966383 40.871212121212125 -15.838852506695371 180 57 41
24.37847137451172 -16.988636363636363 1.8459597500887783 170 43 37
20.573394081809305 -13.295454545454545 4.6114280007102275 144 31 27
25.64424572568951 40.625 -15.658611528801195 183 56 41
24.37847137451172 -17.234848484848484 1.8459597500887783 169 42 36
25.64424572568951 40.37878787878788 -15.658611528801195 182 55 40
24.37847137451172 -17.481060606060606 1.8459597500887783 169 42 36
20.909726691968512 -13.541666666666666 4.701548489657315 150 31 27
25.64424572568951 40.37878787878788 -15.658611528801195 180 53 38
24.71480398467093 -17.481060606060606 1.9360802390358665 169 42 36
21.246059302127723 -13.541666666666666 4.791661464806759 154 30 28
25.307928143125594 40.13257575757576 -15.748732017748283 177 51 37
24.37847137451172 -17.973484848484848 1.8459597500887783 167 40 34
21.45928585168087 -13.787878787878789 4.668555404200698 154 29 25
39.47806387236624 36.19318181818182 -2.038658604477391 181 49 37
25.980578335848723 39.88636363636364 -15.568491039854107 179 52 37
24.37847137451172 -17.973484848484848 1.8459597500887783 166 39 33
21.45928585168087 -13.787878787878789 4.668555404200698 157 29 26
25.64424572568951 39.640151515151516 -15.658611528801195 177 50 35
24.83791004527699 -18.21969696969697 2.149306788589015 165 38 32
21.795618461840082 -14.03409090909091 4.758675893147786 158 30 27
25.64424572568951 39.640151515151516 -15.658611528801195 177 49 36
24.83791004527699 -18.21969696969697 2.149306788589015 164 37 31
22.13195107199929 -14.03409090909091 4.848796382094875 159 29 27
25.980578335848723 39.39393939393939 -15.568491039854107 178 50 37
25.051136594830137 -18.46590909090909 2.0262007279829546 164 37 31
29.672031980572324 -32.25378787878788 11.014671325683594 132 24 22
39.81439648252545 35.946969696969695 -1.9485456293279475 180 48 36
25.051136594830137 -18.71212121212121 2.0262007279829546 165 36 31
25.980578335848723 39.14772727272727 -15.568491039854107 176 49 34
39.81439648252545 35.946969696969695 -1.9485456293279475 183 46 36
29.672031980572324 -32.5 11.014671325683594 132 22 21
39.81439648252545 35.70075757575758 -1.9485456293279475 181 47 36
26.64503848913944 65.0 10.203594438957445 218 79 58
39.81439648252545 35.45454545454545 -1.9485456293279475 178 46 34
26.30870587898023 64.75378787878788 10.113473950010357 198 45 37
40.15072909268466 35.45454545454545 -1.8584251403808594 177 47 34
24.83791004527699 -18.958333333333332 2.149306788589015 164 35 30
26.30870587898023 64.50757575757576 10.113473950010357 191 33 30
25.980578335848723 39.14772727272727 -15.568491039854107 175 48 33
24.83791004527699 -19.204545454545453 2.149306788589015 164 35 30
40.15072909268466 35.208333333333336 -1.8584251403808594 178 48 35
25.972373268821023 64.50757575757576 10.02335346106327 181 26 22
25.387469204989348 -19.204545454545453 2.1163212169300425 164 35 30
25.980578335848723 38.90151515151515 -15.568491039854107 174 47 32
40.15072909268466 34.96212121212121 -1.8584251403808594 178 48 35
26.30870587898023 64.26136363636364 10.113473950010357 177 25 22
24.83791004527699 -19.450757575757574 2.149306788589015 163 34 29
25.980578335848723 38.65530303030303 -15.568491039854107 173 46 31
26.30870587898023 64.01515151515152 10.113473950010357 175 23 22
40.48706170284387 34.96212121212121 -1.7683046514337712 179 49 36
24.83791004527699 -19.696969696969695 2.149306788589015 163 34 29
25.980578335848723 38.40909090909091 -15.568491039854107 173 45 32
25.759146719267875 63.7689393939394 10.14645952166933 175 23 20
40.700288252397016 34.71590909090909 -1.891410712039832 179 49 36
25.387469204989348 -19.696969696969695 2.1163212169300425 166 34 30
25.980578335848723 38.40909090909091 -15.568491039854107 173 45 32
25.759146719267875 63.52272727272727 10.14645952166933 171 21 20
40.700288252397016 34.46969696969697 -1.891410712039832 179 49 36
25.723801815148555 -19.696969696969695 2.2064341920794863 166 34 30
25.980578335848723 38.16287878787879 -15.568491039854107 172 44 31
26.581441705877133 -33.484848484848484 16.49494980320786 79 24 19
25.387469204989348 -20.18939393939394 2.1163212169300425 166 34 30
25.980578335848723 37.916666666666664 -15.568491039854107 171 43 30
40.700288252397016 34.22348484848485 -1.891410712039832 180 50 37
26.65324355616714 37.67045454545455 -15.388250061959932 170 44 32
26.245109095717922 -35.208333333333336 16.404829314260773 38 18 7
26.65324355616714 37.67045454545455 -15.388250061959932 169 42 33
29.91176720821496 61.553030303030305 16.84658801916874 156 27 22
40.82339431300308 34.22348484848485 -1.6781841624866833 176 48 35
25.387469204989348 -20.18939393939394 2.1163212169300425 165 33 29
26.65324355616714 37.42424242424242 -15.388250061959932 168 41 32
30.034873268821023 61.30681818181818 17.059814568721887 159 29 27
25.723801815148555 -20.435606060606062 2.2064341920794863 164 32 28
26.65324355616714 37.178030303030305 -15.388250061959932 167 40 31
29.91176720821496 61.06060606060606 16.84658801916874 161 29 27
25.723801815148555 -20.681818181818183 2.2064341920794863 164 32 28
26.31691094600793 36.93181818181818 -15.47837055090702 164 40 30
29.91176720821496 60.81439393939394 16.84658801916874 160 26 27
40.82339431300308 33.97727272727273 -1.6781841624866833 176 48 35
25.723801815148555 -20.681818181818183 2.2064341920794863 164 32 28
29.575434598055754 60.56818181818182 16.75646753022165 159 23 25
41.03660583496094 33.97727272727273 -1.801290223092744 174 46 33
25.723801815148555 -20.928030303030305 2.2064341920794863 163 31 27
29.575434598055754 60.56818181818182 16.75646753022165 151 16 20
41.03660583496094 33.73106060606061 -1.801290223092744 174 46 33
25.937028364701703 -21.174242424242426 2.0833281314734258 164 32 28
29.575434598055754 60.321969696969695 16.75646753022165 152 23 27
41.03660583496094 33.484848484848484 -1.801290223092744 174 46 33
26.65324355616714 36.93181818181818 -15.388250061959932 165 38 29
42.027931213378906 28.31439393939394 -5.500941421046401 45 48 67
26.65324355616714 36.68560606060606 -15.388250061959932 165 38 29
29.025890465938684 60.07575757575758 16.78945310188062 154 27 21
25.937028364701703 -21.174242424242426 2.0833281314734258 164 32 28
26.86647010572029 36.43939393939394 -15.511356122565992 165 38 29
29.362223076097894 59.82954545454545 16.87957359082771 151 35 36
42.027931213378906 28.06818181818182 -5.500941421046401 43 49 65
26.86647010572029 36.43939393939394 -15.511356122565992 163 34 28
29.025890465938684 59.583333333333336 16.78945310188062 144 31 33
26.86647010572029 36.19318181818182 -15.511356122565992 162 35 28
42.027931213378906 27.8219696969697 -5.500941421046401 41 50 65
29.025890465938684 59.583333333333336 16.78945310188062 151 55 57
26.86647010572029 35.946969696969695 -15.511356122565992 163 34 28
42.15103727398497 27.8219696969697 -5.287714871493253 38 50 64
25.937028364701703 -21.420454545454547 2.0833281314734258 164 32 28
29.025890465938684 59.33712121212121 16.78945310188062 123 47 51
26.86647010572029 35.70075757575758 -15.511356122565992 162 35 28
42.027931213378906 27.575757575757578 -5.500941421046401 43 46 65
25.937028364701703 -21.666666666666668 2.0833281314734258 164 32 28
28.476331306226328 59.09090909090909 16.822438673539594 147 46 50
26.86647010572029 35.70075757575758 -15.511356122565992 163 31 27
42.15103727398497 27.329545454545453 -5.287714871493253 44 45 65
26.273360974860914 -21.666666666666668 2.1734486204205137 164 32 28
28.689557855779476 58.84469696969697 16.699332612933535 69 10 14
26.86647010572029 35.45454545454545 -15.511356122565992 161 32 27
42.36426382353812 27.329545454545453 -5.4108209320993135 44 46 69
25.937028364701703 -22.15909090909091 2.0833281314734258 164 32 28
28.139998696067117 58.59848484848485 16.732318184592508 133 27 31
26.86647010572029 35.208333333333336 -15.511356122565992 160 31 25
42.15103727398497 27.083333333333332 -5.287714871493253 45 47 68
25.937028364701703 -22.15909090909091 2.0833281314734258 164 32 28
28.476331306226328 58.59848484848485 16.822438673539594 42 0 0
26.86647010572029 34.96212121212121 -15.511356122565992 160 31 25
25.937028364701703 -22.40530303030303 2.0833281314734258 164 32 28
42.36426382353812 26.83712121212121 -5.4108209320993135 45 47 70
26.86647010572029 34.96212121212121 -15.511356122565992 160 31 25
26.273360974860914 -22.651515151515152 2.1734486204205137 165 33 29
11.835223111239348 -2.215909090909091 -3.1371532786976206 125 19 23
26.273360974860914 -22.651515151515152 2.1734486204205137 165 33 29
-45.734051791104406 50.71969696969697 9.915087150804924 133 1 0
42.36426382353812 26.83712121212121 -5.4108209320993135 45 47 70
26.273360974860914 -22.897727272727273 2.1734486204205137 165 33 29
12.384782270951705 -2.215909090909091 -3.1701388503565933 128 19 24
31.13399158824574 65.98484848484848 16.99384342540394 202 91 84
26.273360974860914 -23.143939393939394 2.1734486204205137 165 33 29
31.47032419840495 65.73863636363636 17.083956400553387 176 69 59
26.273360974860914 -23.390151515151516 2.1734486204205137 165 33 29
31.683550747958098 65.49242424242425 16.960850339947324 179 77 65
25.937028364701703 -23.636363636363637 2.0833281314734258 165 33 29
42.70059643369733 26.59090909090909 -5.320700443152226 45 47 70
31.13399158824574 65.49242424242425 16.99384342540394 185 45 32
26.273360974860914 -23.636363636363637 2.1734486204205137 166 34 30
12.721114881110914 -2.215909090909091 -3.0800183614095054 128 19 24
42.82370249430338 26.34469696969697 -5.107473893599077 44 46 67
31.47032419840495 65.24621212121212 17.083956400553387 178 37 27
26.273360974860914 -23.882575757575758 2.1734486204205137 166 34 30
12.721114881110914 -2.462121212121212 -3.0800183614095054 129 20 23
42.82370249430338 26.34469696969697 -5.107473893599077 43 44 64
31.47032419840495 65.0 17.083956400553387 180 31 24
26.273360974860914 -24.12878787878788 2.1734486204205137 166 34 30
12.721114881110914 -2.7083333333333335 -3.0800183614095054 129 20 23
26.396467035466976 -24.12878787878788 2.3866751699736626 166 34 30
42.82370249430338 26.098484848484848 -5.107473893599077 43 42 60
26.86647010572029 34.71590909090909 -15.511356122565992 162 30 26
26.396467035466976 -24.375 2.3866751699736626 166 34 30
42.82370249430338 25.852272727272727 -5.107473893599077 41 38 55
12.844220941716975 -2.7083333333333335 -2.8667918118563565 129 20 23
26.396467035466976 -24.62121212121212 2.3866751699736626 166 34 30
43.03692904385653 25.852272727272727 -5.230579954205138 39 33 47
12.844220941716975 -2.9545454545454546 -2.8667918118563565 129 20 23
26.86647010572029 34.46969696969697 -15.511356122565992 163 29 26
43.03692904385653 25.606060606060606 -5.230579954205138 35 27 40
13.516886162035393 -3.2007575757575757 -2.6865508339621806 129 20 23
