ply
format ascii 1.0
comment Java E3D tool
element vertex 750
property double x
property double y
property double z
property uint8 red
property uint8 green
property uint8 blue
end_header
43.35037462639086 -86.9128787878788 51.448700644753195 35 38 31
43.56360117594401 -86.9128787878788 51.32559458414713 31 34 27
43.56360117594401 -87.1590909090909 51.32559458414713 36 39 32
44.326386885209516 -87.1590909090909 51.1695029518821 27 30 23
44.66271949536873 -87.1590909090909 51.25962344082919 24 27 20
44.875946044921875 -87.1590909090909 51.13651738022313 22 25 18
45.212278655081086 -87.1590909090909 51.22663786917022 17 20 13
44.875946044921875 -87.65151515151516 51.13651738022313 31 34 27
45.425505204634234 -87.40530303030303 51.103531808564156 20 23 16
45.97506436434659 -87.40530303030303 51.07054623690519 19 22 15
46.18829091389974 -87.65151515151516 50.947440176299125 33 36 29
46.52462352405895 -87.65151515151516 51.03754563765092 27 30 23
46.73783504601681 -87.65151515151516 50.91443957704487 35 38 31
46.73783504601681 -87.89772727272728 50.91443957704487 31 34 27
46.73783504601681 -88.14393939393939 50.91443957704487 21 24 17
47.074167656176016 -88.14393939393939 51.00457509358724 36 39 32
47.41050026633523 -88.14393939393939 51.09468055493904 42 43 37
47.83695336544152 -88.14393939393939 50.84846843372692 37 38 32
48.173285975600734 -88.14393939393939 50.9386039502693 43 44 39
48.38651252515388 -88.14393939393939 50.815497889663234 45 46 41
48.38651252515388 -88.39015151515152 50.815497889663234 45 46 41
48.93607168486624 -88.39015151515152 50.782497290408976 51 52 47
48.93607168486624 -88.39015151515152 50.782497290408976 56 57 52
49.27240429502545 -88.63636363636364 50.87261777935606 61 62 57
50.03519000429096 -88.39015151515152 50.71652614709103 57 58 53
35.353214379512906 -56.13636363636364 52.369937318744086 21 22 16
53.422665451512195 -69.18560606060606 50.182280106977984 15 20 16
53.635876973470054 -69.43181818181819 50.05917404637192 18 20 17
53.972209583629265 -69.43181818181819 50.14929453531901 23 25 20
53.972209583629265 -69.6780303030303 50.14929453531901 24 26 21
53.972209583629265 -69.92424242424242 50.14929453531901 25 27 22
54.185436133182414 -69.92424242424242 50.02618847471295 27 28 23
53.972209583629265 -70.17045454545455 50.14929453531901 23 25 20
53.972209583629265 -70.41666666666667 50.14929453531901 23 25 20
54.52176874334162 -70.41666666666667 50.11630896366004 59 60 55
54.185436133182414 -70.66287878787878 50.02618847471295 47 48 43
54.185436133182414 -70.9090909090909 50.02618847471295 51 52 47
54.52176874334162 -70.9090909090909 50.11630896366004 63 64 59
54.185436133182414 -71.40151515151516 50.02618847471295 48 49 44
54.185436133182414 -71.64772727272728 50.02618847471295 36 37 32
54.52176874334162 -71.64772727272728 50.11630896366004 36 37 32
54.185436133182414 -71.89393939393939 50.02618847471295 15 16 11
54.185436133182414 -72.14015151515152 50.02618847471295 12 13 8
55.284554452607125 -71.89393939393939 49.96021733139501 10 11 6
55.284554452607125 -72.14015151515152 49.96021733139501 11 13 8
55.284554452607125 -72.38636363636364 49.96021733139501 11 13 8
55.49778100216027 -72.38636363636364 49.837111270788945 13 15 10
55.834113612319484 -72.38636363636364 49.92723175973603 9 11 6
55.49778100216027 -72.87878787878788 49.837111270788945 7 9 4
55.49778100216027 -73.125 49.837111270788945 6 8 3
55.49778100216027 -73.37121212121212 49.837111270788945 7 9 4
54.52176874334162 -73.86363636363636 50.11630896366004 7 9 4
55.834113612319484 -73.61742424242425 49.92723175973603 11 13 8
55.834113612319484 -73.86363636363636 49.92723175973603 11 13 8
56.04734016187263 -73.86363636363636 49.80412569912997 9 11 8
56.04734016187263 -74.10984848484848 49.80412569912997 9 11 8
56.04734016187263 -74.10984848484848 49.80412569912997 9 11 8
56.04734016187263 -74.35606060606061 49.80412569912997 10 12 9
55.834113612319484 -74.84848484848484 49.92723175973603 9 11 6
55.834113612319484 -75.09469696969697 49.92723175973603 10 12 7
55.834113612319484 -75.3409090909091 49.92723175973603 10 12 7
55.49778100216027 -75.58712121212122 49.837111270788945 8 10 5
55.284554452607125 -76.07954545454545 49.96021733139501 9 12 5
41.91492369680694 -86.17424242424242 51.424551299124055 31 37 27
41.91492369680694 -86.42045454545455 51.424551299124055 29 34 27
41.91492369680694 -86.66666666666667 51.424551299124055 30 33 26
42.128150246360086 -86.66666666666667 51.30144523851799 26 29 22
42.677709406072445 -86.66666666666667 51.26845966685902 27 32 25
42.128150246360086 -87.1590909090909 51.30144523851799 24 25 19
43.227268565784804 -86.66666666666667 51.23547409520005 34 37 30
43.44049511533795 -86.9128787878788 51.112368034593985 35 38 31
43.77682772549716 -86.9128787878788 51.20248852354108 31 34 27
44.20328082460346 -86.9128787878788 50.95627640232895 28 31 24
44.539613434762664 -86.9128787878788 51.04639689127604 27 30 23
44.539613434762664 -87.1590909090909 51.04639689127604 30 33 26
44.875946044921875 -87.1590909090909 51.13651738022313 28 31 24
45.08917259447502 -87.1590909090909 51.01341131961707 25 28 21
45.425505204634234 -87.1590909090909 51.103531808564156 19 22 15
45.63873175418738 -87.40530303030303 50.980425747958094 20 23 16
46.18829091389974 -87.40530303030303 50.947440176299125 19 22 15
46.40151746345289 -87.40530303030303 50.82433411569306 33 36 29
46.40151746345289 -87.65151515151516 50.82433411569306 25 28 21
46.73783504601681 -87.65151515151516 50.91443957704487 28 31 24
46.95106159556996 -87.65151515151516 50.791333516438804 31 34 27
47.287394205729164 -87.65151515151516 50.88146903298118 36 39 32
47.71384730483546 -87.65151515151516 50.635256911769055 43 46 39
48.05017991499467 -87.65151515151516 50.72536237312086 39 40 34
47.71384730483546 -88.14393939393939 50.635256911769055 35 36 30
48.26340646454782 -87.89772727272728 50.6022563125148 43 44 39
48.26340646454782 -88.14393939393939 50.6022563125148 46 47 42
48.59973907470703 -88.39015151515152 50.69239182905717 45 46 41
48.81296562426018 -88.39015151515152 50.56928576845112 45 46 41
49.14929823441939 -88.39015151515152 50.659391229802914 56 57 52
49.36252478397254 -88.39015151515152 50.53628516919685 61 62 57
49.36252478397254 -88.63636363636364 50.53628516919685 58 59 54
50.338537042791195 -68.93939393939394 50.25708747632576 0 2 0
50.338537042791195 -69.18560606060606 50.25708747632576 3 5 0
53.29955939090613 -69.18560606060606 49.969053557424836 17 19 16
53.29955939090613 -69.18560606060606 49.969053557424836 15 20 16
53.8491035230232 -69.18560606060606 49.93606798576586 18 20 17
53.8491035230232 -69.43181818181819 49.93606798576586 18 20 15
53.8491035230232 -69.6780303030303 49.93606798576586 20 22 17
54.06233007257635 -69.6780303030303 49.812961925159804 25 27 22
54.39866268273556 -69.6780303030303 49.90308241410689 27 28 23
53.8491035230232 -70.17045454545455 49.93606798576586 25 27 22
54.39866268273556 -70.17045454545455 49.90308241410689 33 34 29
54.39866268273556 -70.41666666666667 49.90308241410689 40 41 36
54.39866268273556 -70.66287878787878 49.90308241410689 47 48 43
54.39866268273556 -70.9090909090909 49.90308241410689 51 52 47
54.39866268273556 -70.9090909090909 49.90308241410689 53 54 49
54.39866268273556 -71.15530303030303 49.90308241410689 48 49 44
54.39866268273556 -71.40151515151516 49.90308241410689 36 37 32
54.06233007257635 -71.89393939393939 49.812961925159804 11 13 8
54.39866268273556 -71.89393939393939 49.90308241410689 15 16 11
54.06233007257635 -72.14015151515152 49.812961925159804 11 13 8
54.06233007257635 -72.38636363636364 49.812961925159804 9 11 6
55.37467494155422 -72.14015151515152 49.6238847212358 11 13 8
54.61188923228871 -72.63257575757576 49.77997635350083 7 9 4
55.37467494155422 -72.38636363636364 49.6238847212358 11 13 8
55.16144839200106 -72.87878787878788 49.74699078184186 9 11 6
55.71100755171342 -72.63257575757576 49.71400521018288 7 9 4
55.71100755171342 -72.87878787878788 49.71400521018288 6 8 3
55.71100755171342 -73.125 49.71400521018288 7 9 4
55.71100755171342 -73.37121212121212 49.71400521018288 10 12 7
55.71100755171342 -73.61742424242425 49.71400521018288 13 15 10
55.71100755171342 -73.86363636363636 49.71400521018288 12 14 9
55.92423410126657 -73.86363636363636 49.59089914957682 9 11 6
55.37467494155422 -74.35606060606061 49.6238847212358 10 12 7
55.92423410126657 -74.35606060606061 49.59089914957682 8 10 5
55.71100755171342 -74.60227272727273 49.71400521018288 8 10 5
55.71100755171342 -74.84848484848484 49.71400521018288 8 10 5
55.37467494155422 -75.09469696969697 49.6238847212358 8 10 5
55.37467494155422 -75.3409090909091 49.6238847212358 10 13 6
55.16144839200106 -75.83333333333333 49.74699078184186 9 12 5
55.16144839200106 -76.07954545454545 49.74699078184186 6 9 2
41.791817636200875 -86.42045454545455 51.211324749570906 39 42 35
42.00504418575402 -86.42045454545455 51.088218688964844 30 33 26
42.00504418575402 -86.66666666666667 51.088218688964844 28 31 24
42.341376795913234 -86.66666666666667 51.17833917791193 25 28 21
42.890935955625594 -86.66666666666667 51.14535360625296 30 33 26
43.44049511533795 -86.66666666666667 51.112368034593985 34 37 30
43.10416250517874 -86.9128787878788 51.0222475456469 36 37 31
43.6537216648911 -86.9128787878788 50.98926197398793 38 41 34
43.990054275050305 -86.9128787878788 51.079382462935015 36 39 32
44.41650737415661 -86.9128787878788 50.83317034172289 32 35 28
44.75283998431581 -86.9128787878788 50.923290830669984 30 33 26
44.96606653386896 -86.9128787878788 50.80018477006392 28 31 24
45.30239914402817 -87.1590909090909 50.89030525901101 25 28 21
45.51562569358132 -87.1590909090909 50.767199198404946 19 22 15
45.51562569358132 -87.40530303030303 50.767199198404946 27 30 23
45.51562569358132 -87.65151515151516 50.767199198404946 34 37 30
46.61472898541075 -87.1590909090909 50.701228055087 33 36 29
46.27841140284683 -87.65151515151516 50.611107566139914 32 35 28
46.8279555349639 -87.40530303030303 50.578121994480945 28 31 24
47.16428814512311 -87.40530303030303 50.66822745583274 31 34 27
47.16428814512311 -87.65151515151516 50.66822745583274 21 24 17
47.16428814512311 -87.89772727272728 50.66822745583274 25 28 21
47.37751469467626 -87.89772727272728 50.54512139522668 38 41 34
47.92707385438862 -87.89772727272728 50.512150851163 35 36 30
48.47663301410097 -87.89772727272728 50.479150251908735 43 44 39
48.47663301410097 -88.14393939393939 50.479150251908735 46 47 42
48.68985956365412 -88.14393939393939 50.35604419130268 45 46 41
49.02619217381333 -88.14393939393939 50.446179707845054 45 46 41
49.23941872336648 -88.14393939393939 50.32307364723899 56 57 52
49.23941872336648 -88.39015151515152 50.32307364723899 58 59 54
50.002204432631984 -88.14393939393939 50.16696698737867 58 59 54
34.34421654903527 -56.13636363636364 52.09957585190282 17 18 13
34.77066964814157 -56.13636363636364 51.853363730690695 21 22 17
33.88477787827001 -56.38257575757576 51.79622881340258 14 15 10
33.88477787827001 -56.62878787878788 51.79622881340258 17 18 13
35.32022880785393 -56.13636363636364 51.820378159031726 25 26 21
35.32022880785393 -56.38257575757576 51.820378159031726 26 27 22
50.551763592344344 -68.69318181818181 50.133981415719695 0 2 0
53.17645333030007 -69.43181818181819 49.75582700787169 15 17 12
53.51277091286399 -69.43181818181819 49.84594749681877 15 20 14
53.51277091286399 -69.6780303030303 49.84594749681877 15 17 12
53.51277091286399 -69.92424242424242 49.84594749681877 20 22 17
54.06233007257635 -69.6780303030303 49.812961925159804 22 24 19
54.2755566221295 -69.6780303030303 49.68985586455374 25 27 22
53.72599746241714 -70.17045454545455 49.72284143621271 30 32 27
54.06233007257635 -70.41666666666667 49.812961925159804 26 28 23
54.06233007257635 -70.66287878787878 49.812961925159804 28 30 25
54.06233007257635 -70.66287878787878 49.812961925159804 29 31 26
54.2755566221295 -70.9090909090909 49.68985586455374 24 26 21
54.06233007257635 -71.15530303030303 49.812961925159804 16 18 13
54.2755566221295 -71.15530303030303 49.68985586455374 23 25 20
54.2755566221295 -71.40151515151516 49.68985586455374 16 18 13
54.2755566221295 -71.64772727272728 49.68985586455374 11 13 8
54.2755566221295 -71.89393939393939 49.68985586455374 11 13 8
54.2755566221295 -72.14015151515152 49.68985586455374 11 13 8
54.82511578184186 -71.89393939393939 49.656870292894766 15 16 11
54.61188923228871 -72.38636363636364 49.77997635350083 6 8 3
54.61188923228871 -72.63257575757576 49.77997635350083 6 8 3
55.37467494155422 -72.38636363636364 49.6238847212358 9 11 6
54.82511578184186 -72.87878787878788 49.656870292894766 7 9 4
54.82511578184186 -73.125 49.656870292894766 7 9 4
55.58790149110737 -72.87878787878788 49.500778660629734 9 11 6
54.82511578184186 -73.37121212121212 49.656870292894766 7 9 4
54.82511578184186 -73.61742424242425 49.656870292894766 7 9 4
54.82511578184186 -73.86363636363636 49.656870292894766 13 15 10
55.37467494155422 -73.86363636363636 49.6238847212358 12 14 9
55.92423410126657 -73.86363636363636 49.59089914957682 10 12 7
55.92423410126657 -74.10984848484848 49.59089914957682 9 11 6
54.82511578184186 -74.84848484848484 49.656870292894766 11 13 8
55.37467494155422 -74.84848484848484 49.6238847212358 9 11 6
55.37467494155422 -75.09469696969697 49.6238847212358 9 11 6
55.37467494155422 -75.09469696969697 49.6238847212358 9 11 6
55.37467494155422 -75.3409090909091 49.6238847212358 10 13 6
55.37467494155422 -75.58712121212122 49.6238847212358 9 12 5
54.82511578184186 -76.07954545454545 49.656870292894766 4 7 0
42.21827073530717 -86.17424242424242 50.96511262835878 29 34 27
42.21827073530717 -86.17424242424242 50.96511262835878 30 33 26
7.302705013390743 -6.15530303030303 7.724431933778705 9 12 17
7.302705013390743 -6.401515151515151 7.724431933778705 10 13 18
7.639037623549953 -6.401515151515151 7.814552422725793 10 14 17
7.639037623549953 -6.6477272727272725 7.814552422725793 10 14 17
7.639037623549953 -6.8939393939393945 7.814552422725793 9 13 16
7.975370233709162 -7.140151515151516 7.904672911672881 11 15 18
7.639037623549953 -7.386363636363637 7.814552422725793 9 13 16
7.639037623549953 -7.632575757575758 7.814552422725793 7 11 14
7.639037623549953 -7.878787878787879 7.814552422725793 6 10 13
7.639037623549953 -8.125 7.814552422725793 7 11 14
7.639037623549953 -8.371212121212121 7.814552422725793 2 6 9
7.639037623549953 -8.617424242424242 7.814552422725793 0 1 4
7.639037623549953 -8.863636363636363 7.814552422725793 0 1 4
7.302705013390743 -10.09469696969697 7.724431933778705 0 2 5
7.302705013390743 -10.587121212121213 7.724431933778705 6 10 13
7.639037623549953 -10.833333333333334 7.814552422725793 0 0 2
7.975370233709162 -11.079545454545455 7.904672911672881 9 10 12
8.52492939342152 -11.325757575757576 7.871687340013909 8 8 8
7.975370233709162 -11.818181818181818 7.904672911672881 15 16 18
8.52492939342152 -11.818181818181818 7.871687340013909 12 12 12
8.738155942974668 -12.06439393939394 7.748581279407848 10 10 10
8.738155942974668 -12.31060606060606 7.748581279407848 14 14 14
8.738155942974668 -12.556818181818182 7.748581279407848 15 15 17
9.074488553133879 -12.556818181818182 7.838694254557292 8 6 7
8.738155942974668 -13.049242424242424 7.748581279407848 20 20 22
8.738155942974668 -13.295454545454545 7.748581279407848 24 24 26
9.074488553133879 -13.295454545454545 7.838694254557292 20 20 22
9.074488553133879 -13.541666666666666 7.838694254557292 20 20 22
9.410821163293088 -13.787878787878789 7.92881474350438 19 19 21
9.410821163293088 -14.03409090909091 7.92881474350438 19 19 21
9.410821163293088 -14.03409090909091 7.92881474350438 19 19 21
9.960380323005445 -14.280303030303031 7.895829171845407 17 17 19
9.960380323005445 -14.526515151515152 7.895829171845407 18 18 20
9.410821163293088 -14.772727272727273 7.92881474350438 20 20 22
9.960380323005445 -15.018939393939394 7.895829171845407 19 18 23
42.21827073530717 -86.42045454545455 50.96511262835878 28 31 24
9.960380323005445 -15.265151515151516 7.895829171845407 19 18 23
42.55460334546638 -86.66666666666667 51.055233117305875 25 28 21
9.960380323005445 -15.511363636363637 7.895829171845407 19 18 23
10.296712933164654 -15.511363636363637 7.985949660792495 20 20 22
10.296712933164654 -15.757575757575758 7.985949660792495 20 20 22
10.296712933164654 -16.00378787878788 7.985949660792495 20 20 22
10.296712933164654 -16.25 7.985949660792495 21 21 23
10.296712933164654 -16.49621212121212 7.985949660792495 21 20 25
10.296712933164654 -16.742424242424242 7.985949660792495 20 19 24
10.296712933164654 -16.988636363636363 7.985949660792495 20 21 26
10.296712933164654 -17.234848484848484 7.985949660792495 20 21 26
10.633045543323863 -17.234848484848484 8.076070149739584 22 22 24
10.633045543323863 -17.481060606060606 8.076070149739584 24 25 29
10.633045543323863 -17.727272727272727 8.076070149739584 25 26 28
10.633045543323863 -17.973484848484848 8.076070149739584 25 29 32
10.633045543323863 -18.21969696969697 8.076070149739584 27 31 32
10.633045543323863 -18.46590909090909 8.076070149739584 29 30 34
10.633045543323863 -18.71212121212121 8.076070149739584 25 26 28
10.846272092877012 -18.958333333333332 7.9529640891335225 27 27 29
10.846272092877012 -18.958333333333332 7.9529640891335225 33 33 35
10.633045543323863 -19.450757575757574 8.076070149739584 21 20 25
10.846272092877012 -19.450757575757574 7.9529640891335225 19 17 20
10.846272092877012 -19.696969696969695 7.9529640891335225 19 17 18
10.846272092877012 -19.94318181818182 7.9529640891335225 27 25 26
10.846272092877012 -20.18939393939394 7.9529640891335225 19 19 19
10.846272092877012 -20.435606060606062 7.9529640891335225 24 24 24
10.846272092877012 -20.681818181818183 7.9529640891335225 24 24 24
11.395831252589371 -20.681818181818183 7.919978517474551 6 4 5
11.395831252589371 -20.928030303030305 7.919978517474551 1 0 0
11.395831252589371 -21.174242424242426 7.919978517474551 7 5 6
11.395831252589371 -21.420454545454547 7.919978517474551 10 8 9
11.395831252589371 -21.666666666666668 7.919978517474551 8 6 7
11.395831252589371 -21.91287878787879 7.919978517474551 7 5 6
11.395831252589371 -22.15909090909091 7.919978517474551 9 7 8
11.395831252589371 -22.40530303030303 7.919978517474551 6 6 6
11.395831252589371 -22.651515151515152 7.919978517474551 3 3 3
11.395831252589371 -22.897727272727273 7.919978517474551 7 7 7
11.73216386274858 -22.897727272727273 8.010099006421639 0 0 0
11.73216386274858 -23.143939393939394 8.010099006421639 3 1 2
11.73216386274858 -23.390151515151516 8.010099006421639 12 12 12
11.73216386274858 -23.636363636363637 8.010099006421639 19 20 22
11.73216386274858 -23.882575757575758 8.010099006421639 17 21 22
11.73216386274858 -24.12878787878788 8.010099006421639 21 22 24
11.73216386274858 -24.375 8.010099006421639 19 20 22
11.73216386274858 -24.62121212121212 8.010099006421639 14 15 17
11.73216386274858 -24.867424242424242 8.010099006421639 18 19 21
11.73216386274858 -25.113636363636363 8.010099006421639 24 24 26
11.73216386274858 -25.359848484848484 8.010099006421639 22 22 24
11.73216386274858 -25.359848484848484 8.010099006421639 20 20 22
11.73216386274858 -25.606060606060606 8.010099006421639 22 22 24
11.73216386274858 -25.852272727272727 8.010099006421639 24 24 26
11.73216386274858 -26.098484848484848 8.010099006421639 26 26 28
13.167614792332506 -36.19318181818182 8.034248352050781 10 12 9
13.840280012650924 -36.43939393939394 8.214489329944957 7 9 6
13.840280012650924 -36.68560606060606 8.214489329944957 8 10 7
13.840280012650924 -36.93181818181818 8.214489329944957 10 12 9
14.176612622810133 -36.93181818181818 8.304609818892045 17 19 14
14.176612622810133 -37.178030303030305 8.304609818892045 20 21 16
14.176612622810133 -37.42424242424242 8.304609818892045 18 15 10
14.176612622810133 -37.67045454545455 8.304609818892045 12 9 4
14.389839172363281 -37.67045454545455 8.181503758285984 20 18 23
14.389839172363281 -37.916666666666664 8.181503758285984 12 9 18
14.389839172363281 -38.16287878787879 8.181503758285984 8 5 16
14.389839172363281 -38.90151515151515 8.181503758285984 17 5 5
14.176612622810133 -39.14772727272727 8.304609818892045 11 2 0
14.176612622810133 -39.39393939393939 8.304609818892045 19 6 0
14.389839172363281 -39.640151515151516 8.181503758285984 20 0 0
14.939383304480351 -39.640151515151516 8.148518186627012 38 0 0
14.176612622810133 -40.625 8.304609818892045 12 1 0
14.389839172363281 -40.625 8.181503758285984 17 0 0
14.389839172363281 -40.871212121212125 8.181503758285984 11 0 0
14.389839172363281 -41.11742424242424 8.181503758285984 7 0 0
14.939383304480351 -41.11742424242424 8.148518186627012 15 0 0
14.939383304480351 -41.36363636363637 8.148518186627012 16 0 0
15.27571591463956 -41.609848484848484 8.238631161776457 15 0 0
14.939383304480351 -41.85606060606061 8.148518186627012 18 10 7
14.939383304480351 -42.10227272727273 8.148518186627012 19 17 18
15.61204852479877 -42.10227272727273 8.328751650723545 20 16 15
15.61204852479877 -42.34848484848485 8.328751650723545 24 25 29
15.61204852479877 -42.59469696969697 8.328751650723545 12 15 22
15.948381134957978 -42.59469696969697 8.418872139670633 10 5 9
15.948381134957978 -42.84090909090909 8.418872139670633 14 12 17
15.61204852479877 -43.333333333333336 8.328751650723545 9 10 15
15.61204852479877 -43.57954545454545 8.328751650723545 20 19 24
15.61204852479877 -43.57954545454545 8.328751650723545 34 29 33
15.61204852479877 -43.82575757575758 8.328751650723545 33 28 34
15.948381134957978 -44.071969696969695 8.418872139670633 30 29 35
16.16160768451113 -44.071969696969695 8.295766079064572 25 23 26
16.16160768451113 -44.31818181818182 8.295766079064572 27 25 28
16.16160768451113 -44.56439393939394 8.295766079064572 29 27 30
15.948381134957978 -44.81060606060606 8.418872139670633 24 23 29
16.497940294670336 -44.81060606060606 8.38588656801166 22 20 23
16.16160768451113 -45.303030303030305 8.295766079064572 28 26 31
15.948381134957978 -45.54924242424242 8.418872139670633 21 20 28
16.497940294670336 -45.54924242424242 8.38588656801166 28 27 33
16.497940294670336 -45.79545454545455 8.38588656801166 29 28 34
17.047499454382695 -45.79545454545455 8.352900996352687 34 33 39
16.16160768451113 -46.28787878787879 8.295766079064572 24 23 31
17.047499454382695 -46.28787878787879 8.352900996352687 33 32 40
17.047499454382695 -46.53409090909091 8.352900996352687 29 28 36
16.497940294670336 -46.78030303030303 8.38588656801166 26 24 35
16.497940294670336 -47.02651515151515 8.38588656801166 26 25 33
16.497940294670336 -47.27272727272727 8.38588656801166 25 24 30
16.497940294670336 -47.5189393939394 8.38588656801166 29 28 34
17.047499454382695 -47.765151515151516 8.352900996352687 24 23 29
17.047499454382695 -47.765151515151516 8.352900996352687 25 24 30
16.497940294670336 -48.25757575757576 8.38588656801166 28 27 33
16.497940294670336 -48.50378787878788 8.38588656801166 40 39 45
16.497940294670336 -48.75 8.38588656801166 44 43 51
16.497940294670336 -48.996212121212125 8.38588656801166 40 39 47
16.497940294670336 -49.24242424242424 8.38588656801166 36 35 43
17.047499454382695 -49.24242424242424 8.352900996352687 35 34 42
17.047499454382695 -49.48863636363637 8.352900996352687 38 36 47
17.047499454382695 -49.734848484848484 8.352900996352687 34 32 43
17.383832064541902 -49.734848484848484 8.443021485299775 32 30 41
17.383832064541902 -49.98106060606061 8.443021485299775 28 26 37
17.047499454382695 -50.22727272727273 8.352900996352687 26 24 35
17.047499454382695 -50.47348484848485 8.352900996352687 25 23 34
17.047499454382695 -50.71969696969697 8.352900996352687 24 21 30
17.59705861409505 -50.71969696969697 8.319915424693715 22 19 26
17.59705861409505 -50.96590909090909 8.319915424693715 17 16 22
17.59705861409505 -51.21212121212121 8.319915424693715 15 14 20
17.59705861409505 -51.458333333333336 8.319915424693715 15 14 19
17.383832064541902 -51.70454545454545 8.443021485299775 10 11 15
17.383832064541902 -51.95075757575758 8.443021485299775 5 6 8
17.383832064541902 -52.196969696969695 8.443021485299775 0 3 2
17.59705861409505 -52.196969696969695 8.319915424693715 4 6 5
18.269723834413472 -52.196969696969695 8.50015640258789 6 2 0
18.269723834413472 -52.44318181818182 8.50015640258789 9 5 2
17.93339122425426 -52.93560606060606 8.410035913640803 12 9 4
17.93339122425426 -53.18181818181818 8.410035913640803 14 11 6
17.93339122425426 -53.18181818181818 8.410035913640803 17 12 6
18.269723834413472 -53.428030303030305 8.50015640258789 17 10 4
18.269723834413472 -53.67424242424242 8.50015640258789 18 11 3
18.269723834413472 -53.92045454545455 8.50015640258789 27 18 13
18.60605644457268 -53.92045454545455 8.590276891534979 21 10 6
18.60605644457268 -54.166666666666664 8.590276891534979 21 10 8
18.60605644457268 -54.41287878787879 8.590276891534979 17 7 5
18.60605644457268 -54.65909090909091 8.590276891534979 13 5 2
18.60605644457268 -54.90530303030303 8.590276891534979 8 5 0
18.60605644457268 -54.90530303030303 8.590276891534979 4 1 0
10.846272092877012 49.24242424242424 7.9529640891335225 110 104 88
10.296712933164654 48.996212121212125 7.985949660792495 147 141 125
10.296712933164654 48.75 7.985949660792495 139 133 117
10.296712933164654 48.50378787878788 7.985949660792495 124 118 102
9.960380323005445 48.25757575757576 7.895829171845407 123 117 101
10.296712933164654 48.01136363636364 7.985949660792495 125 119 103
10.296712933164654 47.765151515151516 7.985949660792495 139 133 119
10.296712933164654 47.5189393939394 7.985949660792495 147 141 127
10.296712933164654 47.27272727272727 7.985949660792495 126 118 105
10.296712933164654 47.02651515151515 7.985949660792495 123 115 102
9.410821163293088 46.78030303030303 7.92881474350438 120 114 100
9.960380323005445 46.53409090909091 7.895829171845407 109 101 88
7.975370233709162 46.28787878787879 7.904672911672881 17 18 4
7.975370233709162 46.041666666666664 7.904672911672881 6 8 0
7.639037623549953 45.79545454545455 7.814552422725793 0 2 0
7.639037623549953 45.54924242424242 7.814552422725793 2 3 0
9.410821163293088 45.54924242424242 7.92881474350438 41 38 29
9.410821163293088 45.303030303030305 7.92881474350438 19 19 11
7.639037623549953 45.05681818181818 7.814552422725793 10 8 0
7.302705013390743 44.81060606060606 7.724431933778705 36 33 18
7.639037623549953 44.56439393939394 7.814552422725793 38 34 23
7.639037623549953 44.31818181818182 7.814552422725793 62 56 44
9.410821163293088 42.59469696969697 7.92881474350438 51 42 37
9.410821163293088 42.59469696969697 7.92881474350438 55 44 40
9.960380323005445 42.34848484848485 7.895829171845407 49 38 36
9.960380323005445 42.10227272727273 7.895829171845407 54 43 39
9.960380323005445 41.85606060606061 7.895829171845407 54 43 37
9.960380323005445 41.609848484848484 7.895829171845407 53 42 36
9.960380323005445 41.36363636363637 7.895829171845407 53 42 36
9.960380323005445 41.11742424242424 7.895829171845407 53 42 36
9.960380323005445 40.871212121212125 7.895829171845407 52 41 35
9.960380323005445 40.625 7.895829171845407 53 42 36
9.960380323005445 40.37878787878788 7.895829171845407 53 42 36
9.960380323005445 40.13257575757576 7.895829171845407 53 42 36
9.960380323005445 39.88636363636364 7.895829171845407 52 41 35
10.296712933164654 39.640151515151516 7.985949660792495 59 50 43
10.296712933164654 39.640151515151516 7.985949660792495 57 48 43
10.296712933164654 39.39393939393939 7.985949660792495 53 44 37
9.960380323005445 39.14772727272727 7.895829171845407 59 48 42
9.960380323005445 38.90151515151515 7.895829171845407 61 50 44
10.296712933164654 38.65530303030303 7.985949660792495 44 35 30
9.960380323005445 38.40909090909091 7.895829171845407 63 52 46
9.960380323005445 38.16287878787879 7.895829171845407 55 46 39
4.98137734153054 12.556818181818182 7.643147670861446 3 0 0
4.98137734153054 12.31060606060606 7.643147670861446 3 0 0
51.84343049020478 -55.6439393939394 11.007578300707268 237 164 62
51.50709788004557 -56.13636363636364 10.91744278416489 212 136 60
51.17076526988637 -56.38257575757576 10.827337322813092 138 66 16
65.80444220340613 -55.6439393939394 12.044828010327889 22 24 19
66.14077481356534 -55.890151515151516 12.134948499274977 29 30 25
65.80444220340613 -56.13636363636364 12.044828010327889 32 34 29
65.80444220340613 -56.38257575757576 12.044828010327889 30 32 27
65.80444220340613 -56.38257575757576 12.044828010327889 22 24 19
66.14077481356534 -56.62878787878788 12.134948499274977 16 17 12
66.14077481356534 -56.62878787878788 12.134948499274977 15 16 11
66.47710742372455 -56.875 12.225068988222064 12 13 8
66.14077481356534 -57.121212121212125 12.134948499274977 14 15 10
66.14077481356534 -57.36742424242424 12.134948499274977 15 16 11
65.80444220340613 -57.61363636363637 12.044828010327889 16 17 12
65.80444220340613 -57.859848484848484 12.044828010327889 15 16 11
66.14077481356534 -57.859848484848484 12.134948499274977 18 19 14
66.14077481356534 -58.10606060606061 12.134948499274977 17 18 13
65.80444220340613 -58.35227272727273 12.044828010327889 18 19 14
66.14077481356534 -58.35227272727273 12.134948499274977 15 16 11
65.80444220340613 -58.59848484848485 12.044828010327889 19 18 13
66.14077481356534 -58.84469696969697 12.134948499274977 17 18 13
65.80444220340613 -59.09090909090909 12.044828010327889 20 19 14
65.80444220340613 -59.33712121212121 12.044828010327889 20 19 14
66.14077481356534 -59.33712121212121 12.134948499274977 20 21 15
66.14077481356534 -59.583333333333336 12.134948499274977 20 21 15
65.80444220340613 -59.82954545454545 12.044828010327889 22 22 14
65.80444220340613 -60.07575757575758 12.044828010327889 23 23 15
65.80444220340613 -60.07575757575758 12.044828010327889 16 16 8
66.47710742372455 -60.07575757575758 12.225068988222064 17 18 12
65.80444220340613 -60.56818181818182 12.044828010327889 19 19 11
65.80444220340613 -60.56818181818182 12.044828010327889 21 21 13
65.80444220340613 -60.81439393939394 12.044828010327889 23 23 15
66.47710742372455 -60.81439393939394 12.225068988222064 26 27 19
66.14077481356534 -61.06060606060606 12.134948499274977 27 28 20
66.47710742372455 -61.06060606060606 12.225068988222064 27 30 21
64.91855043353456 -63.03030303030303 11.987693093039773 12 15 6
64.3689912738222 -63.52272727272727 12.020678664698746 19 22 13
64.3689912738222 -63.52272727272727 12.020678664698746 10 13 4
64.91855043353456 -63.52272727272727 11.987693093039773 3 6 0
64.91855043353456 -63.7689393939394 11.987693093039773 11 14 3
64.91855043353456 -64.01515151515152 11.987693093039773 37 37 27
65.80444220340613 -63.7689393939394 12.044828010327889 138 129 120
65.80444220340613 -64.01515151515152 12.044828010327889 139 129 120
65.80444220340613 -64.26136363636364 12.044828010327889 135 122 114
66.14077481356534 -64.26136363636364 12.134948499274977 121 111 102
5.407830440636837 11.818181818181818 7.396935549649325 1 0 0
5.407830440636837 11.571969696969697 7.396935549649325 2 2 2
3.972379511052912 9.602272727272727 7.372786204020183 6 4 7
3.972379511052912 9.356060606060606 7.372786204020183 20 19 25
3.972379511052912 9.109848484848484 7.372786204020183 23 23 35
3.422820351340554 8.863636363636363 7.4057792894768 37 39 60
3.422820351340554 8.617424242424242 7.4057792894768 38 42 71
3.422820351340554 8.371212121212121 7.4057792894768 41 45 80
3.422820351340554 8.125 7.4057792894768 45 51 87
3.972379511052912 7.878787878787879 7.372786204020183 28 33 62
3.972379511052912 7.632575757575758 7.372786204020183 26 34 57
3.972379511052912 7.386363636363637 7.372786204020183 26 32 56
3.972379511052912 7.140151515151516 7.372786204020183 27 33 55
3.972379511052912 7.140151515151516 7.372786204020183 34 40 62
3.422820351340554 6.6477272727272725 7.4057792894768 20 25 54
3.422820351340554 6.401515151515151 7.4057792894768 19 25 51
3.422820351340554 6.15530303030303 7.4057792894768 20 24 51
3.422820351340554 5.909090909090909 7.4057792894768 25 27 52
3.422820351340554 5.909090909090909 7.4057792894768 30 32 55
3.0864877411813447 5.416666666666667 7.315658800529711 21 24 57
1.0467170946525806 -1.9696969696969697 15.600852966308594 54 41 35
1.0467170946525806 -2.215909090909091 15.600852966308594 51 40 34
3.0864877411813447 5.170454545454546 7.315658800529711 21 24 55
1.3830497048117898 -2.215909090909091 15.690973455255682 52 39 33
3.0864877411813447 4.924242424242424 7.315658800529711 23 26 57
1.3830497048117898 -2.462121212121212 15.690973455255682 55 42 36
2.7501551310221353 4.678030303030303 7.225538311582623 29 34 72
1.3830497048117898 -2.7083333333333335 15.690973455255682 53 40 34
1.3830497048117898 -2.9545454545454546 15.690973455255682 53 40 34
2.7501551310221353 4.431818181818182 7.225538311582623 27 32 70
1.3830497048117898 -3.2007575757575757 15.690973455255682 52 39 33
3.0864877411813447 4.431818181818182 7.315658800529711 24 27 58
1.3830497048117898 -3.4469696969696972 15.690973455255682 49 38 32
3.0864877411813447 4.1856060606060606 7.315658800529711 21 27 59
3.0864877411813447 3.9393939393939394 7.315658800529711 19 28 61
3.0864877411813447 3.6931818181818183 7.315658800529711 22 28 64
3.0864877411813447 3.4469696969696972 7.315658800529711 21 29 65
3.0864877411813447 3.2007575757575757 7.315658800529711 21 29 65
3.0864877411813447 2.9545454545454546 7.315658800529711 21 29 65
3.0864877411813447 2.7083333333333335 7.315658800529711 21 29 66
3.0864877411813447 2.462121212121212 7.315658800529711 21 31 67
3.0864877411813447 2.215909090909091 7.315658800529711 23 33 69
3.0864877411813447 1.9696969696969697 7.315658800529711 21 34 69
3.0864877411813447 1.7234848484848486 7.315658800529711 22 34 72
3.0864877411813447 1.4772727272727273 7.315658800529711 24 36 74
3.422820351340554 1.231060606060606 7.4057792894768 29 36 64
3.422820351340554 0.9848484848484849 7.4057792894768 22 32 59
3.422820351340554 0.9848484848484849 7.4057792894768 21 28 56
3.422820351340554 0.7386363636363636 7.4057792894768 18 28 55
3.0864877411813447 0.24621212121212122 7.315658800529711 38 51 86
3.422820351340554 0.24621212121212122 7.4057792894768 23 33 60
3.422820351340554 0.0 7.4057792894768 40 47 75
3.422820351340554 -0.24621212121212122 7.4057792894768 33 38 67
3.422820351340554 -0.49242424242424243 7.4057792894768 42 46 73
5.071497830477628 -0.9848484848484849 7.306815060702237 5 5 5
5.071497830477628 -1.231060606060606 7.306815060702237 4 4 4
5.407830440636837 -1.4772727272727273 7.396935549649325 2 2 2
5.407830440636837 -1.4772727272727273 7.396935549649325 3 4 6
5.407830440636837 -1.7234848484848486 7.396935549649325 4 5 9
5.744163050796047 -1.9696969696969697 7.487056038596413 6 7 11
5.744163050796047 -2.215909090909091 7.487056038596413 9 10 14
5.744163050796047 -2.462121212121212 7.487056038596413 9 10 15
6.080495660955256 -2.7083333333333335 7.577176527543502 12 13 18
6.080495660955256 -2.9545454545454546 7.577176527543502 9 12 17
6.080495660955256 -3.2007575757575757 7.577176527543502 9 12 17
6.080495660955256 -3.2007575757575757 7.577176527543502 9 12 17
6.630039793072325 -3.4469696969696972 7.544190955884529 9 13 16
6.630039793072325 -3.6931818181818183 7.544190955884529 9 12 17
6.630039793072325 -3.9393939393939394 7.544190955884529 9 12 17
6.630039793072325 -4.1856060606060606 7.544190955884529 9 12 17
6.843266342625474 -4.431818181818182 7.421084895278469 9 12 17
6.843266342625474 -4.678030303030303 7.421084895278469 9 12 17
6.843266342625474 -4.678030303030303 7.421084895278469 9 12 17
6.843266342625474 -4.924242424242424 7.421084895278469 9 12 17
7.179598952784683 -5.170454545454546 7.511205384225557 9 12 17
7.179598952784683 -5.416666666666667 7.511205384225557 9 12 17
7.179598952784683 -5.662878787878788 7.511205384225557 9 12 17
7.5159315629438925 -5.909090909090909 7.6013258731726445 9 12 17
7.5159315629438925 -5.909090909090909 7.6013258731726445 9 12 17
7.5159315629438925 -6.15530303030303 7.6013258731726445 10 13 18
7.5159315629438925 -6.401515151515151 7.6013258731726445 10 13 18
8.06549072265625 -6.6477272727272725 7.568340301513672 10 14 17
8.06549072265625 -6.8939393939393945 7.568340301513672 9 13 16
8.06549072265625 -7.140151515151516 7.568340301513672 9 13 16
8.06549072265625 -7.386363636363637 7.568340301513672 9 13 16
8.06549072265625 -7.632575757575758 7.568340301513672 7 11 14
1.5962762543649385 -3.6931818181818183 15.567867394649621 51 40 34
7.5159315629438925 -7.878787878787879 7.6013258731726445 5 8 13
8.06549072265625 -8.125 7.568340301513672 7 11 14
1.5962762543649385 -3.9393939393939394 15.567867394649621 49 38 32
8.06549072265625 -8.371212121212121 7.568340301513672 2 6 9
1.3830497048117898 -4.1856060606060606 15.690973455255682 47 36 30
7.5159315629438925 -8.617424242424242 7.6013258731726445 0 1 6
8.06549072265625 -8.617424242424242 7.568340301513672 0 1 4
1.3830497048117898 -4.431818181818182 15.690973455255682 47 36 30
7.179598952784683 -9.848484848484848 7.511205384225557 0 2 7
1.3830497048117898 -4.678030303030303 15.690973455255682 49 38 32
7.179598952784683 -10.09469696969697 7.511205384225557 1 5 8
1.5962762543649385 -4.924242424242424 15.567867394649621 50 39 33
7.5159315629438925 -10.09469696969697 7.6013258731726445 1 5 6
2.1458354140772964 -4.924242424242424 15.534881822990648 52 37 30
7.5159315629438925 -10.587121212121213 7.6013258731726445 10 14 17
2.1458354140772964 -5.170454545454546 15.534881822990648 51 36 29
8.06549072265625 -10.833333333333334 7.568340301513672 0 0 2
8.06549072265625 -11.079545454545455 7.568340301513672 15 16 18
8.401823332815459 -11.079545454545455 7.65846079046076 5 6 8
8.401823332815459 -11.325757575757576 7.65846079046076 11 12 14
8.401823332815459 -11.571969696969697 7.65846079046076 15 16 18
8.738155942974668 -11.818181818181818 7.748581279407848 12 12 12
8.738155942974668 -12.06439393939394 7.748581279407848 16 16 16
8.951382492527816 -12.06439393939394 7.625475218801787 14 14 14
8.951382492527816 -12.31060606060606 7.625475218801787 15 15 17
8.951382492527816 -12.556818181818182 7.625475218801787 17 17 19
8.951382492527816 -12.803030303030303 7.625475218801787 20 20 22
8.951382492527816 -13.049242424242424 7.625475218801787 24 24 26
9.500941652240176 -13.295454545454545 7.592482133345171 20 20 22
9.500941652240176 -13.541666666666666 7.592482133345171 20 20 22
9.500941652240176 -13.787878787878789 7.592482133345171 19 19 21
13.76545761570786 -28.31439393939394 5.130360921223958 21 20 26
9.837274262399385 -13.787878787878789 7.682602622292259 19 19 21
13.76545761570786 -28.560606060606062 5.130360921223958 21 20 26
9.837274262399385 -14.03409090909091 7.682602622292259 19 19 21
13.42912500554865 -29.053030303030305 5.040247946074515 21 20 26
9.837274262399385 -14.280303030303031 7.682602622292259 19 19 21
13.76545761570786 -29.053030303030305 5.130360921223958 21 20 26
9.837274262399385 -14.526515151515152 7.682602622292259 20 20 22
13.76545761570786 -29.299242424242426 5.130360921223958 21 20 26
9.837274262399385 -14.772727272727273 7.682602622292259 20 20 22
13.76545761570786 -29.545454545454547 5.130360921223958 21 20 26
9.837274262399385 -15.018939393939394 7.682602622292259 19 18 23
13.42912500554865 -29.791666666666668 5.040247946074515 21 18 25
10.173606872558594 -15.018939393939394 7.772723111239347 19 18 23
13.76545761570786 -30.03787878787879 5.130360921223958 20 17 24
10.173606872558594 -15.265151515151516 7.772723111239347 19 18 23
13.76545761570786 -30.28409090909091 5.130360921223958 22 19 26
10.173606872558594 -15.511363636363637 7.772723111239347 20 19 24
13.42912500554865 -30.53030303030303 5.040247946074515 23 20 27
10.173606872558594 -15.757575757575758 7.772723111239347 20 19 24
13.42912500554865 -30.776515151515152 5.040247946074515 24 21 28
10.509939482717803 -16.00378787878788 7.862843600186435 20 20 22
14.10179022586707 -30.776515151515152 5.220481410171047 22 19 26
10.509939482717803 -16.25 7.862843600186435 21 21 23
14.10179022586707 -31.022727272727273 5.220481410171047 22 20 25
10.509939482717803 -16.49621212121212 7.862843600186435 21 20 25
14.10179022586707 -31.268939393939394 5.220481410171047 21 19 24
10.509939482717803 -16.742424242424242 7.862843600186435 20 19 24
14.10179022586707 -31.515151515151516 5.220481410171047 21 19 24
10.509939482717803 -16.742424242424242 7.862843600186435 20 21 26
14.10179022586707 -31.761363636363637 5.220481410171047 22 20 25
10.509939482717803 -16.988636363636363 7.862843600186435 20 21 26
10.509939482717803 -17.234848484848484 7.862843600186435 20 21 25
14.10179022586707 -32.00757575757576 5.220481410171047 21 21 23
10.509939482717803 -17.481060606060606 7.862843600186435 21 22 27
13.42912500554865 -32.25378787878788 5.040247946074515 23 23 25
10.509939482717803 -17.727272727272727 7.862843600186435 21 22 26
13.42912500554865 -32.5 5.040247946074515 23 23 25
11.059498642430162 -17.973484848484848 7.829858028527462 25 29 32
13.42912500554865 -32.746212121212125 5.040247946074515 23 23 25
11.059498642430162 -18.21969696969697 7.829858028527462 27 31 32
13.42912500554865 -32.99242424242424 5.040247946074515 24 24 24
11.059498642430162 -18.46590909090909 7.829858028527462 29 30 34
13.42912500554865 -33.23863636363637 5.040247946074515 24 24 24
11.059498642430162 -18.71212121212121 7.829858028527462 25 26 28
13.42912500554865 -33.484848484848484 5.040247946074515 23 23 21
11.059498642430162 -18.71212121212121 7.829858028527462 21 20 25
13.092792395389441 -33.73106060606061 4.950127457127427 14 16 15
11.059498642430162 -18.958333333333332 7.829858028527462 19 19 21
13.092792395389441 -33.97727272727273 4.950127457127427 7 7 5
11.059498642430162 -19.204545454545453 7.829858028527462 21 20 25
12.666354323878434 -34.46969696969697 5.196339578339548 2 2 0
11.059498642430162 -19.450757575757574 7.829858028527462 23 23 25
12.666354323878434 -34.71590909090909 5.196339578339548 0 0 0
11.27272519198331 -19.696969696969695 7.706751967921401 19 17 18
13.42912500554865 -34.71590909090909 5.040247946074515 48 50 47
11.059498642430162 -19.94318181818182 7.829858028527462 19 19 21
12.666354323878434 -34.96212121212121 5.196339578339548 20 20 18
11.27272519198331 -20.18939393939394 7.706751967921401 19 19 19
13.42912500554865 -34.96212121212121 5.040247946074515 22 24 21
11.27272519198331 -20.435606060606062 7.706751967921401 24 24 24
13.092792395389441 -35.45454545454545 4.950127457127427 14 15 10
11.27272519198331 -20.435606060606062 7.706751967921401 24 24 24
13.092792395389441 -35.70075757575758 4.950127457127427 14 15 10
11.27272519198331 -20.681818181818183 7.706751967921401 19 19 19
13.092792395389441 -35.946969696969695 4.950127457127427 14 15 10
11.27272519198331 -20.928030303030305 7.706751967921401 17 17 17
13.42912500554865 -35.946969696969695 5.040247946074515 16 15 11
11.27272519198331 -21.174242424242426 7.706751967921401 22 22 22
13.42912500554865 -36.19318181818182 5.040247946074515 16 15 11
11.60905780214252 -21.420454545454547 7.796872456868489 10 8 9
13.42912500554865 -36.43939393939394 5.040247946074515 16 15 11
11.60905780214252 -21.666666666666668 7.796872456868489 8 6 7
18.79275928844105 -50.47348484848485 2.512148076837713 124 117 111
13.76545761570786 -36.43939393939394 5.130360921223958 20 15 12
11.60905780214252 -21.91287878787879 7.796872456868489 7 5 6
19.12909189860026 -50.47348484848485 2.6022685657848013 128 121 115
14.10179022586707 -36.68560606060606 5.220481410171047 20 15 12
11.60905780214252 -22.15909090909091 7.796872456868489 9 7 8
19.12909189860026 -50.71969696969697 2.6022685657848013 126 117 110
11.60905780214252 -22.15909090909091 7.796872456868489 6 6 6
14.10179022586707 -36.93181818181818 5.220481410171047 16 18 17
19.12909189860026 -50.96590909090909 2.6022685657848013 126 117 110
11.60905780214252 -22.40530303030303 7.796872456868489 3 3 3
14.10179022586707 -37.178030303030305 5.220481410171047 14 18 19
11.60905780214252 -22.651515151515152 7.796872456868489 7 7 7
19.46542450875947 -50.96590909090909 2.692389054731889 120 111 102
13.42912500554865 -37.42424242424242 5.040247946074515 19 15 12
11.60905780214252 -22.897727272727273 7.796872456868489 17 17 17
19.12909189860026 -51.458333333333336 2.6022685657848013 111 101 92
13.42912500554865 -37.67045454545455 5.040247946074515 18 15 10
11.60905780214252 -23.143939393939394 7.796872456868489 23 23 23
20.014983668471828 -51.458333333333336 2.6594034830729165 124 114 105
13.42912500554865 -37.916666666666664 5.040247946074515 18 15 10
11.60905780214252 -23.390151515151516 7.796872456868489 23 25 24
19.46542450875947 -51.70454545454545 2.692389054731889 113 103 94
13.42912500554865 -38.16287878787879 5.040247946074515 19 16 9
9.500941652240176 49.24242424242424 7.592482133345171 135 129 113
19.46542450875947 -51.95075757575758 2.692389054731889 110 97 89
13.42912500554865 -38.40909090909091 5.040247946074515 19 16 9
9.500941652240176 48.996212121212125 7.592482133345171 125 119 103
20.35131627863104 -51.95075757575758 2.749523972020005 122 112 103
13.76545761570786 -38.40909090909091 5.130360921223958 20 17 10
9.837274262399385 48.75 7.682602622292259 149 143 127
20.35131627863104 -52.196969696969695 2.749523972020005 119 108 102
13.76545761570786 -38.65530303030303 5.130360921223958 20 17 10
10.173606872558594 48.50378787878788 7.772723111239347 132 126 110
14.43812283602628 -38.65530303030303 5.310601899118135 21 20 15
20.35131627863104 -52.44318181818182 2.749523972020005 115 106 99
9.837274262399385 48.25757575757576 7.682602622292259 139 133 117
14.10179022586707 -39.14772727272727 5.220481410171047 22 19 14
20.35131627863104 -52.68939393939394 2.749523972020005 117 110 104
13.76545761570786 -39.39393939393939 5.130360921223958 19 16 11
20.900875438343395 -52.44318181818182 2.7165384003610322 114 109 105
14.43812283602628 -39.39393939393939 5.310601899118135 24 20 17
9.837274262399385 48.01136363636364 7.682602622292259 149 143 127
14.774455446185488 -39.640151515151516 5.400722388065223 26 26 18
9.837274262399385 47.765151515151516 7.682602622292259 156 150 136
14.43812283602628 -39.88636363636364 5.310601899118135 24 23 19
20.564542828184187 -52.93560606060606 2.6264179114139443 111 108 103
14.43812283602628 -40.13257575757576 5.310601899118135 24 25 19
10.173606872558594 47.5189393939394 7.772723111239347 144 138 124
20.900875438343395 -52.93560606060606 2.7165384003610322 51 48 43
14.774455446185488 -40.13257575757576 5.400722388065223 19 24 20
20.900875438343395 -53.18181818181818 2.7165384003610322 5 2 0
9.837274262399385 47.27272727272727 7.682602622292259 149 143 129
21.237208048502605 -53.18181818181818 2.80665888930812 8 5 0
15.200908545291785 -40.37878787878788 5.1545102668531015 27 28 30
21.237208048502605 -53.428030303030305 2.80665888930812 17 14 9
8.401823332815459 47.02651515151515 7.65846079046076 20 18 3
21.237208048502605 -53.67424242424242 2.80665888930812 20 17 12
15.200908545291785 -40.625 5.1545102668531015 16 20 21
21.237208048502605 -53.92045454545455 2.80665888930812 17 12 6
8.401823332815459 46.78030303030303 7.65846079046076 20 21 5
21.237208048502605 -54.166666666666664 2.80665888930812 23 18 12
15.200908545291785 -40.625 5.1545102668531015 6 10 11
21.573540658661813 -54.166666666666664 2.8967793782552085 18 9 2
8.06549072265625 46.53409090909091 7.568340301513672 22 23 7
14.774455446185488 -41.11742424242424 5.400722388065223 8 12 15
21.237208048502605 -54.65909090909091 2.80665888930812 9 0 0
8.401823332815459 46.28787878787879 7.65846079046076 17 18 4
14.43812283602628 -41.36363636363637 5.310601899118135 15 13 16
21.237208048502605 -54.90530303030303 2.80665888930812 8 0 0
8.06549072265625 46.041666666666664 7.568340301513672 4 6 0
15.200908545291785 -41.36363636363637 5.1545102668531015 13 16 21
21.237208048502605 -54.90530303030303 2.80665888930812 10 0 0
8.06549072265625 45.79545454545455 7.568340301513672 0 2 0
14.774455446185488 -41.85606060606061 5.400722388065223 22 26 29
21.237208048502605 -55.151515151515156 2.80665888930812 87 75 63
9.837274262399385 45.79545454545455 7.682602622292259 89 82 72
14.774455446185488 -42.10227272727273 5.400722388065223 20 24 27
20.900875438343395 -55.6439393939394 2.7165384003610322 82 70 58
9.837274262399385 45.54924242424242 7.682602622292259 41 38 29
