ply
format ascii 1.0
comment Java E3D tool
element vertex 730
property double x
property double y
property double z
property uint8 red
property uint8 green
property uint8 blue
end_header
-4.103690638686672 -0.24621212121212122 18.00583926114169 81 61 50
-7.862843600186435 50.22727272727273 10.509946996515447 78 60 48
-18.801610542066168 -53.18181818181818 -4.497143138538707 113 95 81
-7.862843600186435 49.98106060606061 10.509946996515447 75 57 45
-7.862843600186435 49.734848484848484 10.509946996515447 75 57 45
-18.801610542066168 -53.428030303030305 -4.497143138538707 113 95 81
-18.801610542066168 -53.428030303030305 -4.497143138538707 113 94 80
-7.526510990027226 49.48863636363637 10.600067485462535 73 55 43
-18.801610542066168 -53.67424242424242 -4.497143138538707 113 94 80
-7.526510990027226 49.24242424242424 10.600067485462535 78 60 48
-4.103690638686672 -0.49242424242424243 18.00583926114169 82 60 49
-19.47427576238459 -53.67424242424242 -4.677384116432884 115 93 79
-7.526510990027226 49.24242424242424 10.600067485462535 82 64 52
-4.103690638686672 -0.49242424242424243 18.00583926114169 72 52 41
-19.13794315222538 -54.166666666666664 -4.587263627485796 117 95 82
-13.08807373046875 -20.435606060606062 9.83081239642519 28 30 43
-4.103690638686672 -0.7386363636363636 18.00583926114169 66 44 33
-19.13794315222538 -54.41287878787879 -4.587263627485796 113 89 77
-13.424406340627959 -20.435606060606062 9.740691907478102 27 29 42
-4.103690638686672 -0.9848484848484849 18.00583926114169 62 42 31
-19.13794315222538 -54.41287878787879 -4.587263627485796 115 91 79
-13.08807373046875 -20.928030303030305 9.83081239642519 30 29 43
-3.5541314789743135 -1.231060606060606 17.97285368948272 63 45 35
-19.13794315222538 -54.65909090909091 -4.587263627485796 115 88 79
-13.424406340627959 -20.928030303030305 9.740691907478102 27 29 42
-3.5541314789743135 -1.4772727272727273 17.97285368948272 63 45 35
-19.13794315222538 -54.90530303030303 -4.587263627485796 107 80 73
-13.424406340627959 -21.174242424242426 9.740691907478102 28 27 41
-3.5541314789743135 -1.7234848484848486 17.97285368948272 64 46 36
-19.13794315222538 -55.151515151515156 -4.587263627485796 101 73 69
-13.424406340627959 -21.420454545454547 9.740691907478102 28 27 41
-63.88777761748343 -65.24621212121212 -20.543218670469344 106 89 79
-19.47427576238459 -55.151515151515156 -4.677384116432884 98 70 66
-13.424406340627959 -21.666666666666668 9.740691907478102 28 27 41
-19.47427576238459 -55.39772727272727 -4.677384116432884 95 67 64
-63.88777761748343 -65.49242424242425 -20.543218670469344 106 89 79
-13.424406340627959 -21.91287878787879 9.740691907478102 28 27 41
-63.88777761748343 -65.73863636363636 -20.543218670469344 107 90 80
-13.08807373046875 -22.15909090909091 9.83081239642519 29 28 44
-63.88777761748343 -65.73863636363636 -20.543218670469344 107 90 80
-19.47427576238459 -55.6439393939394 -4.677384116432884 89 65 61
-13.08807373046875 -22.40530303030303 9.83081239642519 29 28 44
-63.88777761748343 -65.98484848484848 -20.543218670469344 108 91 81
136.91947127833512 -56.13636363636364 9.651473074248344 13 15 10
-13.424406340627959 -22.40530303030303 9.740691907478102 30 27 44
-63.88777761748343 -66.47727272727273 -20.543218670469344 111 94 84
136.03356448086825 -56.38257575757576 9.594338156960227 16 18 13
-13.424406340627959 -22.651515151515152 9.740691907478102 30 27 44
-63.88777761748343 -67.46212121212122 -20.543218670469344 112 98 87
136.03356448086825 -56.62878787878788 9.594338156960227 12 13 8
-13.08807373046875 -22.897727272727273 9.83081239642519 32 29 46
-63.88777761748343 -67.70833333333333 -20.543218670469344 113 99 88
136.03356448086825 -57.121212121212125 9.594338156960227 13 14 9
-13.08807373046875 -23.143939393939394 9.83081239642519 33 30 47
17.20294490005031 -56.62878787878788 -18.46117539839311 208 133 65
135.36089926054984 -57.121212121212125 9.41409717906605 14 15 10
-13.424406340627959 -23.390151515151516 9.740691907478102 32 29 46
-16.698243112275094 -56.38257575757576 -19.07370018236565 169 101 40
-19.564396251331676 -55.890151515151516 -4.341051506273674 76 57 53
-13.08807373046875 -23.636363636363637 9.83081239642519 34 31 48
-16.698243112275094 -56.62878787878788 -19.07370018236565 169 100 41
-18.801610542066168 -56.38257575757576 -4.497143138538707 55 40 35
-13.08807373046875 -23.882575757575758 9.83081239642519 35 33 47
-17.034575722434305 -56.62878787878788 -19.163820671312738 174 100 35
-19.22806364117247 -56.38257575757576 -4.250931017326586 43 29 26
-13.424406340627959 -23.882575757575758 9.740691907478102 34 32 43
-18.13367901426373 -56.38257575757576 -19.097849527994793 173 100 21
-18.801610542066168 -56.875 -4.497143138538707 77 66 62
-13.08807373046875 -24.375 9.83081239642519 36 34 47
-18.47001162442294 -56.62878787878788 -19.18797001694188 177 105 21
-18.801610542066168 -57.121212121212125 -4.497143138538707 103 94 89
-13.08807373046875 -24.62121212121212 9.83081239642519 36 34 47
-18.68323817397609 -56.62878787878788 -19.06486395633582 182 108 21
-13.08807373046875 -24.62121212121212 9.83081239642519 37 33 47
-1.0307878436464253 33.73106060606061 8.555555632620147 62 49 41
-13.08807373046875 -24.867424242424242 9.83081239642519 37 33 47
-1.0307878436464253 33.484848484848484 8.555555632620147 57 46 40
-0.6944552334872159 33.23863636363637 8.645676121567234 51 42 35
-13.08807373046875 -25.113636363636363 9.83081239642519 37 33 47
-0.6944552334872159 33.23863636363637 8.645676121567234 44 35 30
-13.08807373046875 -25.359848484848484 9.83081239642519 37 33 47
-6.042776396780303 20.681818181818183 7.753314971923828 34 41 67
-13.08807373046875 -25.606060606060606 9.83081239642519 38 32 44
-6.042776396780303 20.435606060606062 7.753314971923828 33 41 62
-13.08807373046875 -25.852272727272727 9.83081239642519 41 35 47
-6.379109006939513 20.18939393939394 7.66319448297674 47 58 88
-13.08807373046875 -26.098484848484848 9.83081239642519 42 36 48
-6.379109006939513 19.94318181818182 7.66319448297674 47 58 88
-12.751741120309541 -26.34469696969697 9.920932885372277 42 34 47
-6.379109006939513 19.696969696969695 7.66319448297674 45 56 88
-13.08807373046875 -26.59090909090909 9.83081239642519 39 33 45
-6.379109006939513 19.450757575757574 7.66319448297674 45 56 88
-6.379109006939513 19.450757575757574 7.66319448297674 46 57 89
-13.08807373046875 -26.59090909090909 9.83081239642519 40 34 46
-6.379109006939513 19.204545454545453 7.66319448297674 45 56 88
-6.379109006939513 18.958333333333332 7.66319448297674 43 54 84
-13.08807373046875 -26.83712121212121 9.83081239642519 41 35 47
-6.379109006939513 18.71212121212121 7.66319448297674 37 46 75
-13.08807373046875 -27.083333333333332 9.83081239642519 41 33 46
-6.379109006939513 18.46590909090909 7.66319448297674 34 44 71
-6.379109006939513 18.21969696969697 7.66319448297674 32 40 63
-6.379109006939513 17.973484848484848 7.66319448297674 28 35 54
-6.379109006939513 17.727272727272727 7.66319448297674 23 29 45
-7.26500077681108 17.727272727272727 7.606059565688625 37 41 78
-13.08807373046875 -27.329545454545453 9.83081239642519 45 35 46
-18.46527793190696 -57.36742424242424 -4.407022649591619 100 95 89
-7.26500077681108 17.481060606060606 7.606059565688625 37 41 76
-13.08807373046875 -27.575757575757578 9.83081239642519 43 31 43
-18.801610542066168 -57.36742424242424 -4.497143138538707 3 0 0
-7.4782273263642285 17.234848484848484 7.7291656262946855 35 40 72
-18.46527793190696 -57.859848484848484 -4.407022649591619 4 4 0
-13.08807373046875 -27.8219696969697 9.83081239642519 47 35 45
-7.4782273263642285 16.988636363636363 7.7291656262946855 34 36 57
-19.22806364117247 -57.859848484848484 -4.250931017326586 5 6 0
-13.08807373046875 -28.06818181818182 9.83081239642519 52 40 50
-19.22806364117247 -58.10606060606061 -4.250931017326586 7 10 1
-13.08807373046875 -28.31439393939394 9.83081239642519 53 42 50
-19.564396251331676 -58.10606060606061 -4.341051506273674 12 13 7
-13.08807373046875 -28.31439393939394 9.83081239642519 54 43 49
-19.22806364117247 -58.35227272727273 -4.250931017326586 13 14 8
-13.424406340627959 -28.560606060606062 9.740691907478102 48 38 46
-7.26500077681108 16.742424242424242 7.606059565688625 24 28 40
-19.564396251331676 -58.59848484848485 -4.341051506273674 15 14 9
-14.646615693063447 -35.946969696969695 9.593444015040543 36 38 59
-7.26500077681108 16.49621212121212 7.606059565688625 18 20 33
-19.564396251331676 -58.84469696969697 -4.341051506273674 15 14 9
-14.097071560946379 -36.43939393939394 9.56045844338157 44 47 66
-7.26500077681108 16.25 7.606059565688625 9 11 23
-19.564396251331676 -58.84469696969697 -4.341051506273674 14 13 8
-14.433404171105588 -36.43939393939394 9.470337954434482 35 33 55
-7.26500077681108 16.00378787878788 7.606059565688625 1 4 13
-19.564396251331676 -59.09090909090909 -4.341051506273674 13 14 9
-14.097071560946379 -36.68560606060606 9.56045844338157 37 34 53
-7.26500077681108 15.757575757575758 7.606059565688625 0 0 7
-19.564396251331676 -59.33712121212121 -4.341051506273674 13 15 12
-14.433404171105588 -36.93181818181818 9.470337954434482 37 33 56
-19.900728861490887 -59.583333333333336 -4.431171995220763 13 15 10
-7.26500077681108 15.511363636363637 7.606059565688625 0 1 4
-14.433404171105588 -37.178030303030305 9.470337954434482 34 32 53
-14.433404171105588 -37.42424242424242 9.470337954434482 33 32 50
-14.433404171105588 -37.67045454545455 9.470337954434482 31 33 48
-19.900728861490887 -59.583333333333336 -4.431171995220763 14 14 6
-14.097071560946379 -37.916666666666664 9.56045844338157 31 33 48
-49.291188789136484 -55.890151515151516 -7.079364892208215 226 163 60
-14.097071560946379 -38.16287878787879 9.56045844338157 31 33 46
-7.26500077681108 15.511363636363637 7.606059565688625 0 1 2
-48.741629629424125 -56.38257575757576 -7.1123504638671875 197 134 55
-14.433404171105588 -38.16287878787879 9.470337954434482 29 31 44
-7.4782273263642285 15.265151515151516 7.7291656262946855 0 0 4
-66.61551157633464 -55.6439393939394 -9.017811977502072 25 26 20
-14.433404171105588 -38.40909090909091 9.470337954434482 30 32 45
-66.61551157633464 -55.890151515151516 -9.017811977502072 40 41 35
-14.433404171105588 -38.65530303030303 9.470337954434482 32 31 45
-7.4782273263642285 15.018939393939394 7.7291656262946855 0 1 3
-66.15607290556936 -56.38257575757576 -8.714464939001834 37 38 32
-14.433404171105588 -38.90151515151515 9.470337954434482 32 31 45
-66.49240551572858 -56.38257575757576 -8.804585427948924 38 39 33
-14.646615693063447 -38.90151515151515 9.593444015040543 30 30 42
-66.61551157633464 -56.38257575757576 -9.017811977502072 24 25 19
-14.433404171105588 -39.39393939393939 9.470337954434482 33 33 45
-66.82873812588778 -56.38257575757576 -8.894705916896012 16 15 10
-14.433404171105588 -39.39393939393939 9.470337954434482 33 33 43
-7.4782273263642285 14.772727272727273 7.7291656262946855 1 3 2
-66.49240551572858 -56.875 -8.804585427948924 18 17 12
-14.646615693063447 -39.640151515151516 9.593444015040543 32 30 41
-3.5541314789743135 -1.9696969696969697 17.97285368948272 65 47 37
-7.8145599365234375 14.526515151515152 7.639045137347598 1 3 2
-66.82873812588778 -56.875 -8.894705916896012 19 18 13
-7.4782273263642285 14.280303030303031 7.7291656262946855 5 5 3
-3.5541314789743135 -2.215909090909091 17.97285368948272 66 48 38
-66.82873812588778 -57.121212121212125 -8.894705916896012 21 20 15
-3.5541314789743135 -2.462121212121212 17.97285368948272 66 48 36
-7.4782273263642285 14.03409090909091 7.7291656262946855 4 4 2
-66.61551157633464 -57.36742424242424 -9.017811977502072 20 20 12
-3.5541314789743135 -2.7083333333333335 17.97285368948272 66 48 36
-7.26500077681108 13.787878787878789 7.606059565688625 3 3 1
-66.61551157633464 -57.61363636363637 -9.017811977502072 20 20 12
-3.5541314789743135 -2.9545454545454546 17.97285368948272 65 47 35
-6.92866816665187 13.541666666666666 7.696180054635713 3 3 3
-66.61551157633464 -57.61363636363637 -9.017811977502072 20 20 12
-3.5541314789743135 -3.2007575757575757 17.97285368948272 65 47 35
-14.475225968794389 -20.435606060606062 6.935768705425841 27 26 40
-66.82873812588778 -57.859848484848484 -8.894705916896012 21 21 13
-4.103690638686672 -3.2007575757575757 18.00583926114169 65 46 32
-14.475225968794389 -20.681818181818183 6.935768705425841 27 26 40
-66.82873812588778 -57.859848484848484 -8.894705916896012 22 22 14
-4.103690638686672 -3.4469696969696972 18.00583926114169 63 45 31
-14.475225968794389 -20.928030303030305 6.935768705425841 27 26 40
-66.61551157633464 -58.10606060606061 -9.017811977502072 22 22 14
-4.103690638686672 -3.6931818181818183 18.00583926114169 63 45 31
-14.475225968794389 -21.174242424242426 6.935768705425841 28 27 41
-66.61551157633464 -58.35227272727273 -9.017811977502072 23 23 15
-14.475225968794389 -21.174242424242426 6.935768705425841 28 27 41
-4.103690638686672 -3.9393939393939394 18.00583926114169 66 46 35
-66.61551157633464 -58.59848484848485 -9.017811977502072 23 23 15
-14.475225968794389 -21.420454545454547 6.935768705425841 28 27 41
-4.103690638686672 -4.1856060606060606 18.00583926114169 69 47 36
-66.82873812588778 -58.59848484848485 -8.894705916896012 23 23 15
-14.475225968794389 -21.666666666666668 6.935768705425841 28 27 41
-4.103690638686672 -4.431818181818182 18.00583926114169 69 47 36
-14.475225968794389 -21.91287878787879 6.935768705425841 28 27 41
-4.103690638686672 -4.678030303030303 18.00583926114169 70 48 37
-14.475225968794389 -22.15909090909091 6.935768705425841 28 27 41
-4.103690638686672 -4.924242424242424 18.00583926114169 69 49 40
-4.103690638686672 -4.924242424242424 18.00583926114169 70 50 41
-4.103690638686672 -5.170454545454546 18.00583926114169 71 51 42
-26.924882368607953 -56.38257575757576 -38.75645377419212 29 31 26
-14.475225968794389 -22.40530303030303 6.935768705425841 27 26 40
-4.103690638686672 -5.416666666666667 18.00583926114169 71 51 42
-27.474441528320312 -56.38257575757576 -38.72346820253314 18 20 15
-4.103690638686672 -5.662878787878788 18.00583926114169 71 51 42
-14.475225968794389 -22.651515151515152 6.935768705425841 27 26 40
-4.103690638686672 -5.909090909090909 18.00583926114169 72 52 43
-14.475225968794389 -22.897727272727273 6.935768705425841 26 25 39
-14.8115585789536 -22.897727272727273 6.8456557302763965 26 25 39
-4.103690638686672 -6.15530303030303 18.00583926114169 72 52 43
-14.8115585789536 -23.143939393939394 6.8456557302763965 27 26 40
-4.103690638686672 -6.401515151515151 18.00583926114169 72 52 43
-14.8115585789536 -23.390151515151516 6.8456557302763965 27 26 40
-4.103690638686672 -6.6477272727272725 18.00583926114169 72 52 43
-14.475225968794389 -23.636363636363637 6.935768705425841 28 27 41
-4.103690638686672 -6.8939393939393945 18.00583926114169 71 51 42
-9.414938724402225 36.93181818181818 4.867107506954309 60 42 32
-4.103690638686672 -6.8939393939393945 18.00583926114169 71 51 42
-14.8115585789536 -23.882575757575758 6.8456557302763965 27 26 40
-4.103690638686672 -7.140151515151516 18.00583926114169 70 50 39
-9.414938724402225 36.68560606060606 4.867107506954309 58 40 30
-14.8115585789536 -24.12878787878788 6.8456557302763965 27 26 40
-9.414938724402225 36.43939393939394 4.867107506954309 59 41 31
-8.742273504083807 36.19318181818182 5.047348484848485 60 42 32
-14.8115585789536 -24.12878787878788 6.8456557302763965 27 26 40
-8.529046954530658 35.946969696969695 4.924242424242424 58 40 30
-4.440023248845881 -7.386363636363637 17.9157187721946 73 51 38
-14.8115585789536 -24.375 6.8456557302763965 27 26 40
-8.529046954530658 35.70075757575758 4.924242424242424 58 39 32
-4.440023248845881 -7.632575757575758 17.9157187721946 72 50 36
-14.8115585789536 -24.62121212121212 6.8456557302763965 27 26 40
-8.529046954530658 35.45454545454545 4.924242424242424 57 38 31
-4.440023248845881 -7.878787878787879 17.9157187721946 72 50 36
-14.8115585789536 -24.867424242424242 6.8456557302763965 27 26 40
-8.31582040497751 35.208333333333336 4.801136363636363 56 37 30
-4.440023248845881 -8.125 17.9157187721946 72 50 36
-14.8115585789536 -25.113636363636363 6.8456557302763965 26 26 38
-7.766261245265151 34.96212121212121 4.768150791977392 55 38 30
-4.440023248845881 -8.371212121212121 17.9157187721946 71 49 35
-14.8115585789536 -25.359848484848484 6.8456557302763965 26 26 38
-7.429928635105942 34.71590909090909 4.8582712809244795 53 36 29
-4.440023248845881 -8.371212121212121 17.9157187721946 71 48 34
-14.8115585789536 -25.606060606060606 6.8456557302763965 27 27 39
-7.429928635105942 34.46969696969697 4.8582712809244795 49 34 27
-4.440023248845881 -8.617424242424242 17.9157187721946 70 47 33
-14.475225968794389 -25.852272727272727 6.935768705425841 27 27 39
-4.440023248845881 -8.863636363636363 17.9157187721946 69 46 32
-14.475225968794389 -26.098484848484848 6.935768705425841 27 27 39
-4.77635585900509 -9.109848484848484 17.825598283247515 66 42 30
-14.8115585789536 -26.098484848484848 6.8456557302763965 26 26 38
-4.103690638686672 -9.356060606060606 18.00583926114169 74 45 31
-14.475225968794389 -26.59090909090909 6.935768705425841 27 27 39
-4.103690638686672 -9.602272727272727 18.00583926114169 79 47 34
-7.093596024946733 34.22348484848485 4.948391769871567 46 33 25
-14.8115585789536 -26.59090909090909 6.8456557302763965 26 26 38
-4.103690638686672 -9.848484848484848 18.00583926114169 83 51 36
-9.276519544196852 34.46969696969697 1.6598805514248935 51 34 26
-4.103690638686672 -10.09469696969697 18.00583926114169 92 58 46
-14.8115585789536 -26.83712121212121 6.8456557302763965 27 27 37
-4.103690638686672 -10.340909090909092 18.00583926114169 98 65 50
-14.475225968794389 -27.083333333333332 6.935768705425841 29 28 36
-9.276519544196852 34.22348484848485 1.6598805514248935 51 32 25
-14.8115585789536 -27.329545454545453 6.8456557302763965 31 25 35
-4.103690638686672 -10.587121212121213 18.00583926114169 96 62 50
-14.8115585789536 -27.575757575757578 6.8456557302763965 31 26 33
-9.276519544196852 33.97727272727273 1.6598805514248935 49 30 23
-4.103690638686672 -10.833333333333334 18.00583926114169 89 57 46
-14.8115585789536 -27.8219696969697 6.8456557302763965 30 24 34
-3.5541314789743135 -11.079545454545455 17.97285368948272 86 53 44
-4.510743112275095 31.515151515151516 2.035668113014915 21 16 12
-14.8115585789536 -27.8219696969697 6.8456557302763965 30 24 34
-2.862065633138021 31.268939393939394 1.936711398037997 0 0 0
-14.8115585789536 -28.06818181818182 6.8456557302763965 28 25 36
-14.475225968794389 -28.560606060606062 6.935768705425841 28 25 36
-2.5257330229788115 31.022727272727273 2.0268318869850854 0 2 0
-14.8115585789536 -28.560606060606062 6.8456557302763965 28 26 39
-2.5257330229788115 30.776515151515152 2.0268318869850854 0 1 0
-14.475225968794389 -28.806818181818183 6.935768705425841 28 26 39
-2.5257330229788115 30.53030303030303 2.0268318869850854 2 6 5
-14.8115585789536 -29.053030303030305 6.8456557302763965 28 26 39
-2.5257330229788115 30.28409090909091 2.0268318869850854 0 0 11
-2.862065633138021 30.03787878787879 1.936711398037997 0 4 26
-14.8115585789536 -29.299242424242426 6.8456557302763965 28 26 37
-6.069285074869792 29.299242424242426 1.798292217832623 76 86 121
-14.475225968794389 -29.545454545454547 6.935768705425841 28 26 37
-14.475225968794389 -29.791666666666668 6.935768705425841 29 26 37
-14.475225968794389 -30.03787878787879 6.935768705425841 31 25 35
-14.475225968794389 -30.28409090909091 6.935768705425841 31 26 33
-14.475225968794389 -30.53030303030303 6.935768705425841 32 25 33
-14.8115585789536 -30.53030303030303 6.8456557302763965 31 26 33
-5.396634882146662 29.053030303030305 1.9785331957267993 29 40 85
-6.4209308046283144 33.97727272727273 5.128632747765743 44 31 23
-14.8115585789536 -30.776515151515152 6.8456557302763965 28 23 30
-5.060302271987453 28.806818181818183 2.068653684673887 21 35 82
-6.4209308046283144 33.73106060606061 5.128632747765743 41 30 24
-5.396634882146662 28.560606060606062 1.9785331957267993 15 27 77
-5.871371644915956 33.484848484848484 5.0956471761067705 38 29 22
-5.732952464710582 28.31439393939394 1.8884127067797112 14 26 74
-4.98547987504439 33.23863636363637 5.152774579597242 34 27 21
-14.475225968794389 -31.022727272727273 6.935768705425841 32 24 35
-5.396634882146662 28.06818181818182 1.9785331957267993 19 29 78
-4.312814654725971 32.99242424242424 5.333015557491418 29 24 18
-14.8115585789536 -31.268939393939394 6.8456557302763965 28 22 32
-5.396634882146662 27.8219696969697 1.9785331957267993 20 31 76
-4.64914726488518 32.746212121212125 5.24289506854433 25 20 16
-14.475225968794389 -31.515151515151516 6.935768705425841 29 23 33
-5.060302271987453 27.575757575757578 2.068653684673887 20 32 74
-3.763255495013613 32.5 5.300029985832445 22 19 14
-14.475225968794389 -31.761363636363637 6.935768705425841 27 24 33
-4.174410502115886 27.329545454545453 2.125788601962003 21 32 77
-5.321812485203599 18.46590909090909 5.062654090650154 0 2 11
-13.925666809082031 -32.25378787878788 6.902783133766868 22 21 29
-4.174410502115886 27.083333333333332 2.125788601962003 21 32 77
-5.321812485203599 18.46590909090909 5.062654090650154 0 5 14
-4.174410502115886 26.83712121212121 2.125788601962003 20 29 70
-5.321812485203599 18.21969696969697 5.062654090650154 0 6 17
-4.510743112275095 26.83712121212121 2.035668113014915 20 28 65
-7.766261245265151 18.21969696969697 4.768150791977392 17 23 47
-4.510743112275095 26.59090909090909 2.035668113014915 18 25 54
-5.871371644915956 17.727272727272727 5.0956471761067705 3 7 19
-4.510743112275095 26.34469696969697 2.035668113014915 13 19 41
-14.26199941924124 -32.25378787878788 6.81266264481978 19 19 29
-5.060302271987453 26.098484848484848 2.068653684673887 8 16 29
-6.4209308046283144 17.481060606060606 5.128632747765743 6 8 21
-14.26199941924124 -32.5 6.81266264481978 19 19 27
-6.4209308046283144 17.234848484848484 5.128632747765743 13 15 27
-14.26199941924124 -32.746212121212125 6.81266264481978 22 22 30
-13.589334198922822 -33.23863636363637 6.992903622713956 31 31 43
-14.475225968794389 -32.99242424242424 6.935768705425841 23 24 29
-6.7572634147875235 17.234848484848484 5.038512258818655 14 18 29
-13.925666809082031 -33.484848484848484 6.902783133766868 25 25 33
-6.7572634147875235 16.988636363636363 5.038512258818655 15 19 31
-13.925666809082031 -33.73106060606061 6.902783133766868 26 25 33
-5.871371644915956 16.742424242424242 5.0956471761067705 13 18 38
-14.475225968794389 -33.73106060606061 6.935768705425841 26 25 30
-6.7572634147875235 16.49621212121212 5.038512258818655 14 19 39
-13.925666809082031 -34.22348484848485 6.902783133766868 23 22 30
-6.7572634147875235 16.25 5.038512258818655 15 18 37
-14.475225968794389 -34.22348484848485 6.935768705425841 16 17 21
-45.408929767030656 20.681818181818183 0.6297464081735322 133 124 117
-14.475225968794389 -34.22348484848485 6.935768705425841 5 8 13
-45.408929767030656 20.435606060606062 0.6297464081735322 122 111 105
-13.925666809082031 -34.71590909090909 6.902783133766868 0 4 10
-44.859370607318304 20.18939393939394 0.5967608365145597 127 118 111
-14.26199941924124 -34.96212121212121 6.81266264481978 0 3 10
-66.61551157633464 -58.84469696969697 -9.017811977502072 24 24 16
-14.475225968794389 -34.96212121212121 6.935768705425841 5 10 16
-44.859370607318304 19.94318181818182 0.5967608365145597 114 105 96
-66.61551157633464 -59.09090909090909 -9.017811977502072 24 24 16
-44.52303799715909 19.94318181818182 0.6868813254616477 110 101 92
-44.52303799715909 19.696969696969695 0.6868813254616477 108 99 90
-15.361117738665957 -34.96212121212121 6.878641301935369 39 38 44
-44.52303799715909 19.450757575757574 0.6868813254616477 106 97 88
-15.361117738665957 -35.208333333333336 6.878641301935369 54 51 60
-44.52303799715909 19.204545454545453 0.6868813254616477 98 87 81
-14.8115585789536 -35.45454545454545 6.8456557302763965 49 47 60
-44.309811447605945 18.958333333333332 0.5637752648555872 94 83 77
-66.61551157633464 -59.33712121212121 -9.017811977502072 25 25 17
-15.361117738665957 -35.70075757575758 6.878641301935369 37 30 46
-66.82873812588778 -59.33712121212121 -8.894705916896012 25 25 17
-44.52303799715909 18.958333333333332 0.6868813254616477 80 69 65
-14.8115585789536 -35.946969696969695 6.8456557302763965 25 23 36
-66.61551157633464 -59.583333333333336 -9.017811977502072 26 26 18
-44.52303799715909 18.71212121212121 0.6868813254616477 68 57 53
-66.49240551572858 -59.82954545454545 -8.804585427948924 27 27 19
-14.475225968794389 -36.19318181818182 6.935768705425841 28 26 37
-44.309811447605945 18.46590909090909 0.5637752648555872 76 65 61
-66.61551157633464 -60.07575757575758 -9.017811977502072 27 27 19
-14.26199941924124 -36.68560606060606 6.81266264481978 29 27 38
-44.859370607318304 18.21969696969697 0.5967608365145597 65 56 49
-14.475225968794389 -36.68560606060606 6.935768705425841 27 26 34
-66.82873812588778 -60.07575757575758 -8.894705916896012 28 28 20
-14.8533803766424 -20.681818181818183 4.311086481267756 26 24 35
-14.26199941924124 -36.93181818181818 6.81266264481978 27 26 34
-66.82873812588778 -60.321969696969695 -8.894705916896012 30 30 22
-14.8115585789536 -36.93181818181818 6.8456557302763965 24 21 30
-66.61551157633464 -60.56818181818182 -9.017811977502072 33 33 25
-14.8115585789536 -37.178030303030305 6.8456557302763965 26 23 30
-66.61551157633464 -60.81439393939394 -9.017811977502072 30 30 22
-14.8115585789536 -37.42424242424242 6.8456557302763965 29 24 30
-66.82873812588778 -60.81439393939394 -8.894705916896012 31 31 23
-14.8533803766424 -20.928030303030305 4.311086481267756 25 23 34
-14.8115585789536 -37.67045454545455 6.8456557302763965 27 21 25
-14.646615693063447 -39.88636363636364 9.593444015040543 32 31 39
-14.8533803766424 -21.174242424242426 4.311086481267756 24 22 33
-14.8115585789536 -37.916666666666664 6.8456557302763965 27 21 25
-14.646615693063447 -40.13257575757576 9.593444015040543 31 30 38
-14.8115585789536 -38.16287878787879 6.8456557302763965 28 21 28
-14.646615693063447 -40.37878787878788 9.593444015040543 30 29 37
-15.361117738665957 -38.16287878787879 6.878641301935369 28 20 31
-14.8533803766424 -21.420454545454547 4.311086481267756 25 23 34
-14.646615693063447 -40.37878787878788 9.593444015040543 29 28 34
-15.361117738665957 -38.40909090909091 6.878641301935369 24 21 32
-14.8533803766424 -21.666666666666668 4.311086481267756 26 24 35
-14.646615693063447 -40.625 9.593444015040543 29 30 34
-14.8115585789536 -38.90151515151515 6.8456557302763965 27 24 31
-14.8533803766424 -21.91287878787879 4.311086481267756 28 26 37
-14.646615693063447 -40.871212121212125 9.593444015040543 17 18 20
-16.033782958984375 -38.65530303030303 6.698400324041193 23 25 22
-15.18971298680161 -21.91287878787879 4.220965992320668 28 26 37
-14.433404171105588 -41.11742424242424 9.470337954434482 25 23 26
-16.033782958984375 -38.90151515151515 6.698400324041193 24 23 18
-15.86237820712003 -21.91287878787879 4.040725014426491 26 24 35
-15.319280913381865 -41.11742424242424 9.413203037146365 69 64 68
-15.697450348825166 -39.14772727272727 6.788520812988281 22 20 23
-15.18971298680161 -22.40530303030303 4.220965992320668 28 26 37
-15.655613523541074 -41.11742424242424 9.323082548199277 77 68 71
-15.361117738665957 -39.640151515151516 6.878641301935369 31 26 33
-15.991946133700285 -41.36363636363637 9.23296205925219 75 66 69
-15.18971298680161 -22.651515151515152 4.220965992320668 27 25 36
-15.655613523541074 -41.609848484848484 9.323082548199277 73 62 66
-15.361117738665957 -39.88636363636364 6.878641301935369 28 17 31
-15.361117738665957 -39.88636363636364 6.878641301935369 40 28 42
-15.319280913381865 -41.85606060606061 9.413203037146365 27 16 20
-15.697450348825166 -40.13257575757576 6.788520812988281 33 20 30
-16.033782958984375 -40.13257575757576 6.698400324041193 50 36 33
-16.033782958984375 -40.37878787878788 6.698400324041193 47 35 21
-15.319280913381865 -42.10227272727273 9.413203037146365 32 20 22
-15.697450348825166 -40.625 6.788520812988281 38 28 18
-15.319280913381865 -42.34848484848485 9.413203037146365 53 41 43
-15.697450348825166 -40.871212121212125 6.788520812988281 39 26 20
-15.655613523541074 -42.59469696969697 9.323082548199277 44 34 33
-15.697450348825166 -41.11742424242424 6.788520812988281 40 29 25
-15.655613523541074 -42.84090909090909 9.323082548199277 59 49 48
-15.361117738665957 -41.609848484848484 6.878641301935369 35 27 24
-15.655613523541074 -42.84090909090909 9.323082548199277 66 58 56
-15.697450348825166 -41.609848484848484 6.788520812988281 25 20 14
-16.418399232806582 -42.84090909090909 9.47917418046431 64 56 53
-16.033782958984375 -41.609848484848484 6.698400324041193 23 20 13
-15.991946133700285 -43.333333333333336 9.23296205925219 60 55 51
-16.583327091101445 -41.609848484848484 6.731385895700166 22 18 9
-16.418399232806582 -43.333333333333336 9.47917418046431 49 44 40
-16.033782958984375 -42.10227272727273 6.698400324041193 27 27 19
-15.18971298680161 -22.897727272727273 4.220965992320668 27 25 36
-15.991946133700285 -43.57954545454545 9.23296205925219 49 44 41
-15.18971298680161 -23.143939393939394 4.220965992320668 27 25 36
-15.18971298680161 -23.390151515151516 4.220965992320668 26 24 35
-15.18971298680161 -23.390151515151516 4.220965992320668 26 24 35
-15.991946133700285 -43.82575757575758 9.23296205925219 47 42 39
-15.52604559696082 -23.636363636363637 4.13084550337358 25 23 34
-15.991946133700285 -44.071969696969695 9.23296205925219 41 33 31
-15.18971298680161 -23.882575757575758 4.220965992320668 25 23 34
-16.418399232806582 -44.31818181818182 9.47917418046431 37 29 27
-15.18971298680161 -24.12878787878788 4.220965992320668 25 23 34
-15.991946133700285 -44.56439393939394 9.23296205925219 37 27 26
-15.18971298680161 -24.375 4.220965992320668 25 23 34
-15.991946133700285 -44.81060606060606 9.23296205925219 31 21 20
-15.18971298680161 -24.62121212121212 4.220965992320668 25 23 34
-15.991946133700285 -45.05681818181818 9.23296205925219 31 21 20
-15.18971298680161 -24.867424242424242 4.220965992320668 25 23 34
-16.418399232806582 -45.05681818181818 9.47917418046431 36 26 25
-16.418399232806582 -45.303030303030305 9.47917418046431 36 26 25
-15.18971298680161 -25.113636363636363 4.220965992320668 25 23 34
-16.418399232806582 -45.54924242424242 9.47917418046431 37 27 26
-15.18971298680161 -25.359848484848484 4.220965992320668 24 22 33
-16.418399232806582 -45.79545454545455 9.47917418046431 39 29 28
-15.18971298680161 -25.359848484848484 4.220965992320668 24 22 33
-16.418399232806582 -46.041666666666664 9.47917418046431 39 29 28
-15.18971298680161 -25.606060606060606 4.220965992320668 24 22 33
-16.418399232806582 -46.041666666666664 9.47917418046431 38 30 28
-16.418399232806582 -46.28787878787879 9.47917418046431 37 29 27
-15.52604559696082 -25.852272727272727 4.13084550337358 23 22 30
-16.63162578235973 -46.53409090909091 9.602280241070371 34 29 25
-15.52604559696082 -26.098484848484848 4.13084550337358 23 22 30
-16.418399232806582 -46.78030303030303 9.47917418046431 36 31 28
-15.52604559696082 -26.34469696969697 4.13084550337358 23 22 30
-16.418399232806582 -47.02651515151515 9.47917418046431 39 31 29
-15.52604559696082 -26.34469696969697 4.13084550337358 23 22 30
-16.63162578235973 -47.02651515151515 9.602280241070371 43 35 33
-15.52604559696082 -26.59090909090909 4.13084550337358 23 22 30
-16.63162578235973 -47.27272727272727 9.602280241070371 45 37 35
-15.52604559696082 -26.83712121212121 4.13084550337358 23 22 30
-16.63162578235973 -47.5189393939394 9.602280241070371 41 33 31
-66.61551157633464 -61.06060606060606 -9.017811977502072 31 31 23
-16.418399232806582 -47.765151515151516 9.47917418046431 41 33 31
-15.52604559696082 -27.083333333333332 4.13084550337358 23 22 28
-66.82873812588778 -61.06060606060606 -8.894705916896012 39 39 31
-15.52604559696082 -27.329545454545453 4.13084550337358 23 22 28
-65.6065287734523 -63.03030303030303 -8.747450510660807 19 18 13
-15.52604559696082 -27.575757575757578 4.13084550337358 25 22 29
-64.72063700358073 -63.52272727272727 -8.690323107170336 33 32 27
-16.63162578235973 -48.01136363636364 9.602280241070371 39 34 31
-65.6065287734523 -63.276515151515156 -8.747450510660807 5 4 0
-15.52604559696082 -27.8219696969697 4.13084550337358 24 21 28
-16.63162578235973 -48.25757575757576 9.602280241070371 35 30 27
-65.6065287734523 -63.52272727272727 -8.747450510660807 1 1 0
-15.52604559696082 -28.06818181818182 4.13084550337358 24 22 27
-17.30429100267815 -48.25757575757576 9.422039263176195 27 22 19
-65.6065287734523 -63.7689393939394 -8.747450510660807 6 6 0
-15.18971298680161 -28.31439393939394 4.220965992320668 25 22 29
-17.30429100267815 -48.25757575757576 9.422039263176195 11 7 4
-65.6065287734523 -63.7689393939394 -8.747450510660807 61 61 51
-15.18971298680161 -28.560606060606062 4.220965992320668 25 22 29
-66.61551157633464 -63.52272727272727 -9.017811977502072 142 138 126
-17.30429100267815 -48.50378787878788 9.422039263176195 13 9 6
-15.18971298680161 -28.806818181818183 4.220965992320668 25 22 29
-66.49240551572858 -63.7689393939394 -8.804585427948924 146 142 131
-15.18971298680161 -29.053030303030305 4.220965992320668 25 23 28
-66.49240551572858 -64.01515151515152 -8.804585427948924 149 143 131
-15.18971298680161 -29.299242424242426 4.220965992320668 26 24 29
-66.61551157633464 -64.01515151515152 -9.017811977502072 140 132 121
-17.30429100267815 -48.75 9.422039263176195 25 21 18
-66.61551157633464 -64.26136363636364 -9.017811977502072 133 123 111
-17.30429100267815 -48.996212121212125 9.422039263176195 38 34 31
-15.18971298680161 -29.299242424242426 4.220965992320668 26 24 29
-17.64062361283736 -48.996212121212125 9.331918774229107 35 31 28
-17.976956222996566 -49.24242424242424 9.24179828528202 30 26 23
-17.976956222996566 -49.48863636363637 9.24179828528202 33 29 26
-17.976956222996566 -49.734848484848484 9.24179828528202 32 28 25
-17.976956222996566 -49.734848484848484 9.24179828528202 35 30 27
-17.976956222996566 -49.98106060606061 9.24179828528202 32 27 24
-17.976956222996566 -50.22727272727273 9.24179828528202 31 26 23
-17.976956222996566 -50.47348484848485 9.24179828528202 34 29 26
-17.976956222996566 -50.71969696969697 9.24179828528202 40 32 29
-17.64062361283736 -50.96590909090909 9.331918774229107 40 32 29
-17.976956222996566 -51.21212121212121 9.24179828528202 37 29 26
-18.190182772549715 -51.21212121212121 9.36490434588808 29 21 18
-17.976956222996566 -51.458333333333336 9.24179828528202 28 20 17
-17.976956222996566 -51.70454545454545 9.24179828528202 22 14 11
-46.70596151640921 22.651515151515152 -2.601622379187382 103 100 95
-17.976956222996566 -51.95075757575758 9.24179828528202 16 11 5
-46.91918806596236 22.40530303030303 -2.4785163185813213 96 91 87
-17.976956222996566 -52.196969696969695 9.24179828528202 16 11 5
-46.91918806596236 22.15909090909091 -2.4785163185813213 96 89 83
-46.91918806596236 21.91287878787879 -2.4785163185813213 92 85 79
-17.976956222996566 -52.44318181818182 9.24179828528202 13 10 3
-46.91918806596236 21.91287878787879 -2.4785163185813213 92 83 76
-18.190182772549715 -52.44318181818182 9.36490434588808 8 5 0
-47.25552067612157 21.666666666666668 -2.568636807528409 86 79 73
-18.526515382708926 -52.68939393939394 9.274783856940992 36 33 26
-46.91918806596236 21.420454545454547 -2.4785163185813213 82 73 66
-18.526515382708926 -52.68939393939394 9.274783856940992 40 35 29
-46.91918806596236 21.174242424242426 -2.4785163185813213 79 72 66
-18.190182772549715 -53.18181818181818 9.36490434588808 37 29 27
-46.91918806596236 21.174242424242426 -2.4785163185813213 73 68 64
-18.190182772549715 -53.428030303030305 9.36490434588808 27 17 16
-46.70596151640921 20.928030303030305 -2.601622379187382 66 58 55
-18.190182772549715 -53.428030303030305 9.36490434588808 25 14 12
-18.526515382708926 -53.67424242424242 9.274783856940992 27 16 14
-18.526515382708926 -53.92045454545455 9.274783856940992 58 43 40
-18.526515382708926 -54.166666666666664 9.274783856940992 73 58 55
-46.70596151640921 20.681818181818183 -2.601622379187382 56 51 47
-18.526515382708926 -54.166666666666664 9.274783856940992 68 53 48
-3.5541314789743135 -11.325757575757576 17.97285368948272 82 58 48
-46.36962890625 20.435606060606062 -2.5115018902402935 53 45 42
-46.36962890625 20.18939393939394 -2.5115018902402935 54 49 45
-22.716223976828836 -55.890151515151516 14.821025963985559 107 61 11
-46.36962890625 19.94318181818182 -2.5115018902402935 60 56 53
-39.433867714621805 -56.13636363636364 11.963709050958807 219 153 69
-38.97442904385653 -56.62878787878788 12.267056089459043 155 94 29
-66.97125983960701 -55.39772727272727 7.108443289092093 18 18 8
-67.09436590021306 -55.890151515151516 6.895216739538944 122 122 114
-46.36962890625 19.94318181818182 -2.5115018902402935 63 62 60
-66.97125983960701 -56.13636363636364 7.108443289092093 118 118 110
-7.168403394294508 14.772727272727273 1.8642708749482126 8 7 5
-66.6349272294478 -56.38257575757576 7.198563778039181 129 129 121
-7.168403394294508 14.526515151515152 1.8642708749482126 4 3 1
-66.42170067989466 -56.62878787878788 7.07545771743312 128 127 122
-7.168403394294508 14.280303030303031 1.8642708749482126 1 0 0
-66.2985946192886 -56.875 7.2886842669862695 94 93 88
-7.168403394294508 14.03409090909091 1.8642708749482126 1 0 0
-66.08536806973544 -57.36742424242424 7.165578206380208 57 54 49
-7.168403394294508 13.787878787878789 1.8642708749482126 1 0 0
-65.74903545957623 -57.61363636363637 7.255698695327297 53 50 45
-6.832070784135299 13.541666666666666 1.9543913638953008 3 2 0
-66.97125983960701 -57.121212121212125 7.108443289092093 35 32 27
-6.832070784135299 13.295454545454545 1.9543913638953008 5 4 2
-66.2985946192886 -57.61363636363637 7.2886842669862695 43 40 35
-6.832070784135299 13.049242424242424 1.9543913638953008 6 5 3
-66.42170067989466 -57.859848484848484 7.07545771743312 40 37 32
-18.931193496241715 -54.90530303030303 0.6950863924893466 25 21 20
-66.42170067989466 -57.859848484848484 7.07545771743312 38 35 30
-18.931193496241715 -55.151515151515156 0.6950863924893466 28 24 23
-66.6349272294478 -57.859848484848484 7.198563778039181 40 35 29
-19.267526106400922 -55.151515151515156 0.6049659035422585 25 20 17
-66.97125983960701 -58.10606060606061 7.108443289092093 41 36 30
-19.267526106400922 -55.39772727272727 0.6049659035422585 30 25 22
-66.97125983960701 -58.10606060606061 7.108443289092093 41 36 30
-18.862847992868133 -54.41287878787879 9.184670881791549 67 56 50
-66.97125983960701 -58.35227272727273 7.108443289092093 41 36 30
-66.6349272294478 -58.59848484848485 7.198563778039181 39 36 29
-66.97125983960701 -58.84469696969697 7.108443289092093 39 36 29
-66.97125983960701 -58.84469696969697 7.108443289092093 41 38 33
-66.97125983960701 -59.09090909090909 7.108443289092093 42 39 34
-66.97125983960701 -59.33712121212121 7.108443289092093 42 39 34
-15.18971298680161 -29.545454545454547 4.220965992320668 27 25 30
-66.97125983960701 -59.33712121212121 7.108443289092093 42 39 34
-15.18971298680161 -29.791666666666668 4.220965992320668 27 25 30
-66.97125983960701 -59.583333333333336 7.108443289092093 39 38 33
-15.18971298680161 -30.03787878787879 4.220965992320668 26 24 29
-66.97125983960701 -59.82954545454545 7.108443289092093 39 38 33
-15.52604559696082 -30.28409090909091 4.13084550337358 27 25 28
-66.97125983960701 -59.82954545454545 7.108443289092093 39 38 34
-66.6349272294478 -60.321969696969695 7.198563778039181 38 37 33
-15.52604559696082 -30.28409090909091 4.13084550337358 31 29 32
-66.97125983960701 -60.321969696969695 7.108443289092093 39 38 34
-15.86237820712003 -30.53030303030303 4.040725014426491 33 31 34
143.27981081875888 -59.33712121212121 45.781508937026516 60 57 48
-15.86237820712003 -30.776515151515152 4.040725014426491 30 28 29
127.1688461303711 -63.52272727272727 42.005314682469226 34 32 20
-15.86237820712003 -31.022727272727273 4.040725014426491 21 17 16
127.84151135068952 -64.01515151515152 42.1855556603634 26 24 12
-15.52604559696082 -31.268939393939394 4.13084550337358 21 20 16
127.84151135068952 -64.50757575757576 42.1855556603634 7 7 0
-15.52604559696082 -31.515151515151516 4.13084550337358 16 12 9
128.51417657100794 -65.0 42.36579663825758 1 1 0
-15.52604559696082 -31.761363636363637 4.13084550337358 11 8 3
126.28293933290423 -65.49242424242425 41.94817976518111 16 19 10
-15.52604559696082 -32.00757575757576 4.13084550337358 18 13 9
126.28293933290423 -65.98484848484848 41.94817976518111 11 14 5
-66.82873812588778 -64.26136363636364 -8.894705916896012 129 119 107
125.61027411258583 -65.98484848484848 41.76793878728693 17 20 11
-66.82873812588778 -64.50757575757576 -8.894705916896012 133 123 113
15.444746306448272 -52.196969696969695 -1.8095028039180872 147 129 119
15.108413696289062 -52.196969696969695 -1.8996232928651753 130 116 107
14.558854536576705 -52.196969696969695 -1.8666377212062026 129 121 108
14.558854536576705 -52.44318181818182 -1.8666377212062026 120 118 103
14.222521926417496 -52.68939393939394 -1.9567582101532908 127 124 105
125.61027411258583 -66.47727272727273 41.76793878728693 14 17 10
13.672962766705137 -52.68939393939394 -1.9237726384943181 124 115 100
-22.929450526381984 -55.6439393939394 14.94413202459162 107 61 11
13.672962766705137 -52.93560606060606 -1.9237726384943181 128 113 106
-39.52398820356889 -56.13636363636364 12.300041661118016 223 155 70
13.672962766705137 -53.18181818181818 -1.9237726384943181 129 116 110
-39.18765559340968 -56.62878787878788 12.390162150065104 155 94 29
13.336630156545928 -53.428030303030305 -2.0138931274414062 125 112 103
-39.52398820356889 -56.875 12.300041661118016 71 29 5
13.000297546386719 -53.428030303030305 -2.104013616388494 123 113 101
-39.18765559340968 -57.121212121212125 12.390162150065104 56 24 13
-15.134952429569129 -50.71969696969697 -4.055384433630741 82 70 56
-66.84815377900095 -55.890151515151516 7.321669838645241 125 125 117
-15.807602622292258 -50.71969696969697 -4.235625411524917 86 73 57
-67.18448638916016 -56.13636363636364 7.231549349698153 118 118 110
-15.807602622292258 -50.96590909090909 -4.235625411524917 89 76 60
-15.807602622292258 -51.21212121212121 -4.235625411524917 95 77 65
-16.020829171845406 -51.21212121212121 -4.1125193509188565 100 80 69
-16.357161782004617 -51.458333333333336 -4.202639839865944 103 81 68
-16.357161782004617 -51.458333333333336 -4.202639839865944 104 82 69
-16.906720941716976 -51.70454545454545 -4.169654268206972 105 86 72
17.326050960656367 -56.62878787878788 -18.24794884883996 210 135 67
-17.243053551876184 -51.70454545454545 -4.2597747571540605 106 87 73
-16.575137051669035 -56.62878787878788 -18.8604736328125 135 79 32
-17.456280101429332 -51.95075757575758 -4.136668696548 107 88 74
-17.12469621138139 -56.38257575757576 -18.827488061153527 174 100 35
-17.456280101429332 -51.95075757575758 -4.136668696548 108 89 75
-17.4610288215406 -56.62878787878788 -18.917608550100617 178 101 29
-17.792612711588543 -52.196969696969695 -4.226789185495088 110 91 77
-17.792612711588543 -52.44318181818182 -4.226789185495088 111 92 78
-18.560132113370027 -56.38257575757576 -18.85163740678267 177 105 21
-16.033782958984375 -42.34848484848485 6.698400324041193 24 21 14
-18.12894532174775 -52.44318181818182 -4.316909674442176 111 92 78
-18.46527793190696 -52.44318181818182 -4.407022649591619 110 91 77
-18.46527793190696 -52.68939393939394 -4.407022649591619 110 92 80
-18.46527793190696 -52.93560606060606 -4.407022649591619 109 93 80
-18.801610542066168 -53.18181818181818 -4.497143138538707 111 95 80
-18.89646472352924 -56.38257575757576 -18.941757895729758 182 108 21
-18.801610542066168 -53.428030303030305 -4.497143138538707 112 96 81
-18.801610542066168 -53.428030303030305 -4.497143138538707 113 95 81
-21.43103397253788 -56.62878787878788 -18.899921070445668 192 120 22
-63.76467155687737 -55.39772727272727 -20.329992120916195 6 8 3
-19.22806364117247 -53.67424242424242 -4.250931017326586 113 94 80
-19.22806364117247 -53.92045454545455 -4.250931017326586 116 94 81
-63.76467155687737 -55.39772727272727 -20.329992120916195 6 8 3
-19.22806364117247 -54.166666666666664 -4.250931017326586 117 95 82
-63.21511239716501 -55.890151515151516 -20.362977692575168 95 97 92
-19.22806364117247 -54.166666666666664 -4.250931017326586 113 89 77
-63.00188584761186 -56.13636363636364 -20.486083753181227 133 135 130
-19.22806364117247 -54.41287878787879 -4.250931017326586 116 92 82
-63.76467155687737 -56.13636363636364 -20.329992120916195 0 1 0
-19.22806364117247 -54.65909090909091 -4.250931017326586 117 90 83
-63.76467155687737 -56.13636363636364 -20.329992120916195 4 5 0
-19.22806364117247 -54.90530303030303 -4.250931017326586 110 83 76
-63.76467155687737 -56.38257575757576 -20.329992120916195 5 6 1
-19.564396251331676 -54.90530303030303 -4.341051506273674 101 73 69
-66.6349272294478 -56.38257575757576 7.198563778039181 125 125 117
-19.564396251331676 -55.151515151515156 -4.341051506273674 98 70 66
-66.51182116884173 -56.62878787878788 7.41179032759233 132 131 126
-19.564396251331676 -55.39772727272727 -4.341051506273674 99 69 67
-66.2985946192886 -56.875 7.2886842669862695 108 107 102
-19.564396251331676 -55.6439393939394 -4.341051506273674 96 71 67
-66.2985946192886 -57.121212121212125 7.2886842669862695 57 54 49
-6.489276308001894 49.24242424242424 -3.3609517415364585 117 109 96
-66.6349272294478 -57.121212121212125 7.198563778039181 33 30 25
-6.489276308001894 48.996212121212125 -3.3609517415364585 120 112 99
-66.84815377900095 -57.121212121212125 7.321669838645241 34 31 26
-6.489276308001894 48.75 -3.3609517415364585 126 118 105
-66.6349272294478 -57.36742424242424 7.198563778039181 41 38 33
-66.6349272294478 -57.61363636363637 7.198563778039181 40 37 32
-6.8256089181611035 48.50378787878788 -3.4510722304835464 128 120 107
-66.6349272294478 -57.859848484848484 7.198563778039181 38 35 30
-6.8256089181611035 48.25757575757576 -3.4510722304835464 130 123 107
-66.6349272294478 -57.859848484848484 7.198563778039181 40 35 29
-6.8256089181611035 48.01136363636364 -3.4510722304835464 132 125 109
-66.6349272294478 -58.10606060606061 7.198563778039181 40 35 29
-7.375168077873461 47.765151515151516 -3.4180866588245737 127 121 107
-66.6349272294478 -58.35227272727273 7.198563778039181 41 36 30
-7.375168077873461 47.5189393939394 -3.4180866588245737 127 121 107
-66.6349272294478 -58.35227272727273 7.198563778039181 41 36 30
-54.18955369429155 -55.890151515151516 -37.23023616906369 12 13 5
-7.711500688032671 47.27272727272727 -3.508207147771662 65 59 47
-66.6349272294478 -58.59848484848485 7.198563778039181 39 36 29
-15.52604559696082 -32.25378787878788 4.13084550337358 29 22 16
-66.84815377900095 -58.59848484848485 7.321669838645241 39 36 29
-54.18955369429155 -56.13636363636364 -37.23023616906369 14 16 5
-66.6349272294478 -59.09090909090909 7.198563778039181 40 37 32
-15.86237820712003 -32.25378787878788 4.040725014426491 40 27 21
-15.52604559696082 -32.5 4.13084550337358 30 19 13
-53.97634217233369 -63.7689393939394 -37.35334222966974 45 37 34
-15.86237820712003 -32.746212121212125 4.040725014426491 44 25 18
-66.6349272294478 -59.09090909090909 7.198563778039181 41 38 33
-53.97634217233369 -64.01515151515152 -37.35334222966974 50 45 41
-15.86237820712003 -32.99242424242424 4.040725014426491 50 30 21
-66.84815377900095 -59.33712121212121 7.321669838645241 41 38 33
-54.52590133204605 -64.01515151515152 -37.32035665801077 75 67 64
-15.86237820712003 -33.23863636363637 4.040725014426491 58 35 27
-66.84815377900095 -59.33712121212121 7.321669838645241 41 38 33
-54.52590133204605 -64.01515151515152 -37.32035665801077 83 75 72
-66.6349272294478 -59.583333333333336 7.198563778039181 37 36 31
-15.86237820712003 -33.23863636363637 4.040725014426491 62 38 28
-54.739112854003906 -64.26136363636364 -37.19725059740471 63 58 54
-66.84815377900095 -59.82954545454545 7.321669838645241 38 37 32
-15.86237820712003 -33.484848484848484 4.040725014426491 63 36 27
-54.739112854003906 -65.73863636363636 -37.19725059740471 49 48 43
-66.6349272294478 -60.07575757575758 7.198563778039181 36 35 31
